# .PCD v0.7 - Point Cloud Data file format
VERSION 0.7
FIELDS x y z rgb
SIZE 4 4 4 4
TYPE F F F F
COUNT 1 1 1 1
WIDTH 1004
HEIGHT 1
VIEWPOINT 0 0 0 1 0 0 0
POINTS 1004
DATA ascii
0.52643967 -0.26499569 0.64488101 1.1708845e-38
0.52782506 -0.25517845 0.64511299 1.1708845e-38
0.74429685 -0.25211897 0.64924222 1.097128e-38
0.52915275 -0.24527587 0.64533073 1.1708845e-38
0.52963793 -0.23572204 0.64267534 1.1708845e-38
0.53040951 -0.23436204 0.64710909 1.1708845e-38
0.34766614 -0.22213529 0.6430667 1.0879084e-38
0.5299058 -0.22715473 0.64081937 1.1801041e-38
0.53076851 -0.22482871 0.64550996 1.1708845e-38
0.37859124 -0.21754032 0.64572245 7.8366285e-39
0.53145158 -0.21516651 0.6453793 1.1708845e-38
0.53264856 -0.20489854 0.6447857 1.1708845e-38
0.53457969 -0.19504167 0.64475781 1.1247872e-38
0.80524611 -0.19588272 0.64892292 1.097128e-38
0.30694452 -0.18072486 0.64480835 1.0879084e-38
0.53670001 -0.18501426 0.64479595 3.1361816e-39
0.55797446 -0.18264294 0.64021587 2.951433e-39
0.69019473 -0.1864478 0.6472671 1.097128e-38
0.53888005 -0.176948 0.64478844 2.9517932e-39
0.54077899 -0.17220365 0.64575702 2.9517932e-39
0.57891154 -0.17545395 0.64271605 1.0879084e-38
0.86720067 -0.17351866 0.64485985 1.097128e-38
0.54376686 -0.16486575 0.64464653 2.9514316e-39
0.55199504 -0.16132352 0.64255142 3.5053467e-39
0.8115859 -0.16822658 0.64071661 1.0879084e-38
0.54578841 -0.15952483 0.64296007 4.4146437e-39
0.76922303 -0.15545155 0.6442802 1.0879084e-38
0.3651554 -0.14259931 0.64373946 1.0786889e-38
0.52143466 -0.14601748 0.64995426 1.0879084e-38
0.64631295 -0.14309607 0.64618683 1.0879084e-38
0.68893558 -0.14494357 0.64136493 1.0879084e-38
0.43636957 -0.1393586 0.64300793 1.0879084e-38
0.65650421 -0.13267039 0.64691651 1.0879084e-38
0.73476785 -0.13987038 0.64156556 1.097128e-38
0.37837237 -0.12029447 0.64827734 1.0786889e-38
0.42810279 -0.1018517 0.64589405 1.0879084e-38
0.5402894 -0.10897247 0.64007974 1.0879084e-38
0.73198998 -0.10241254 0.64215463 1.0879084e-38
0.53596032 -0.090633549 0.64188367 1.0879084e-38
0.50676155 -0.086769402 0.64023006 1.1524092e-38
0.52964169 -0.080749534 0.64800727 9.0005989e-39
0.53315067 -0.083274618 0.64593464 9.1882314e-39
0.51722372 -0.071941458 0.64488894 8.8259312e-39
0.52399343 -0.075476438 0.64366025 9.2887101e-39
0.50848895 -0.062249739 0.64404553 9.2001158e-39
0.51405412 -0.06549225 0.64470309 8.8255711e-39
0.550623 -0.061146952 0.64797431 7.8257979e-39
0.50573373 -0.054997053 0.64412218 9.0067212e-39
0.49876893 -0.042715322 0.64531749 9.0985567e-39
0.50242341 -0.046644568 0.64310402 9.2836682e-39
0.49818063 -0.037293609 0.64538878 9.0956756e-39
0.50255394 -0.032461781 0.64582437 8.9998786e-39
0.50734496 -0.027466644 0.64537823 7.8060172e-39
0.51231378 -0.022816705 0.64589876 6.3366492e-39
0.50672573 -0.018806519 0.64732832 1.3368362e-38
0.51742548 -0.018292762 0.64521986 5.9693073e-39
0.52351296 -0.012958341 0.64455944 6.4288435e-39
0.52874756 -0.0083102295 0.64520466 8.5407011e-39
0.53413439 -0.0039258604 0.64472842 8.7272504e-39
0.54965824 -0.0079908734 0.64102018 8.7243721e-39
0.72905141 -0.005100986 0.64300776 1.0879084e-38
0.37107766 0.006826276 0.64327264 1.0786889e-38
0.53849626 0.00028458051 0.6449886 8.8162076e-39
0.5449453 0.0061293747 0.64500254 8.7243721e-39
0.55482793 0.015033252 0.64516079 8.8162076e-39
0.56004572 0.019539379 0.64243889 8.8162076e-39
0.37138015 0.027674804 0.64756179 7.7444329e-39
0.56580544 0.0247465 0.64507443 8.7243721e-39
0.57104856 0.029431738 0.64529783 8.7243721e-39
0.57574695 0.033387899 0.64438909 8.8162076e-39
0.58150697 0.038640909 0.64642596 8.8162076e-39
0.58685869 0.042894229 0.64624244 8.8165678e-39
0.5912267 0.046323251 0.64602256 8.9094837e-39
0.39351165 0.060720082 0.64166081 1.0786889e-38
0.48018456 0.067922398 0.64185315 1.0786889e-38
0.56513941 0.076559186 0.64200103 8.8162076e-39
0.73027861 0.077668518 0.64513236 1.0786889e-38
0.71473449 0.080821745 0.64109409 1.0786889e-38
0.82160383 0.083206169 0.64071417 1.0786889e-38
0.47243336 0.099247664 0.64795142 1.0786889e-38
0.51699197 0.099075034 0.64855242 1.0786889e-38
0.81917447 0.11817466 0.64042473 1.0786889e-38
0.82751882 0.11345874 0.64379036 1.0786889e-38
0.6323052 0.12852429 0.6455133 1.0786889e-38
0.71380275 0.13859336 0.64157432 1.0786889e-38
0.4758957 0.15708433 0.648359 1.0786889e-38
0.67879522 0.17401655 0.64731574 1.0786889e-38
0.70272493 0.17803277 0.64624065 1.0694693e-38
0.45567417 0.19775836 0.64333975 6.5509596e-39
0.46148124 0.19477192 0.64476091 7.2878002e-39
0.3666361 0.20076071 0.64205396 1.0694693e-38
0.37463066 0.20970681 0.64148331 1.0694693e-38
0.44737002 0.20593575 0.64462793 6.1821757e-39
0.45105845 0.20104495 0.64630699 6.2743727e-39
0.59951812 0.20978054 0.64823794 1.0786889e-38
0.43889287 0.218263 0.6448561 6.1821757e-39
0.4424713 0.21321082 0.64539742 6.1821757e-39
0.62564015 0.21154374 0.64445806 1.0786889e-38
0.43414631 0.22487514 0.64509016 6.1821757e-39
0.42851311 0.23538552 0.64491612 6.1821757e-39
0.43025661 0.23069689 0.64697665 6.1821757e-39
0.42888871 0.2430661 0.64386725 6.0896185e-39
0.43122897 0.24722926 0.64502734 6.5473359e-39
0.43462569 0.2512303 0.64566123 6.6388056e-39
0.62599444 0.25284481 0.64534611 1.0694693e-38
0.90393841 0.28163207 0.64262354 1.0694693e-38
0.69369769 0.29025799 0.64984602 1.0694693e-38
0.55277759 0.30375344 0.64046901 1.0694693e-38
0.67983216 0.31225556 0.64219683 1.0694693e-38
0.71585315 0.31011254 0.64307314 1.0694693e-38
0.7400803 0.33135948 0.64623493 1.0694693e-38
0.79415953 0.33517122 0.6471808 1.0694693e-38
0.38592002 0.34853423 0.64285934 1.0694693e-38
0.36747622 0.36364233 0.64889199 1.0694693e-38
0.34733066 0.37171459 0.64086527 7.7444329e-39
0.36309084 0.39034477 0.64772248 1.0602497e-38
0.47482118 0.39968187 0.64211506 1.0602497e-38
0.56258917 0.41598761 0.6427179 1.0694693e-38
0.52152252 0.42357394 0.64172572 1.0602497e-38
0.63076258 0.42256317 0.6476388 1.0602497e-38
0.78434342 0.43886599 0.64020526 1.0602497e-38
0.85839295 0.43837443 0.64002573 1.0694693e-38
0.78732777 0.44368389 0.64079827 1.0602497e-38
0.27544045 0.47988358 0.64387125 1.0602497e-38
0.42193791 0.49062446 0.64345968 1.0694693e-38
0.3307097 0.50457138 0.64353138 1.0602497e-38
0.43499839 0.5428862 0.64326066 1.0602497e-38
0.27663794 0.5610677 0.64550906 4.1326169e-39
0.28488225 0.56108469 0.64492029 4.1326169e-39
0.29494676 0.56110555 0.64512372 4.1326169e-39
0.30058029 0.56111717 0.64538443 4.1326169e-39
0.30386025 0.61460406 0.64934069 1.0602497e-38
0.36875433 0.69553399 0.64146388 1.0602497e-38
0.4261604 0.72659361 0.6469633 1.0602497e-38
0.46733412 0.73504704 0.64587474 1.0602497e-38
0.41777414 0.75700957 0.64028072 1.0602497e-38
0.45830566 0.7668547 0.64446533 1.0510302e-38
0.44420648 -0.71183002 0.65472156 1.0786889e-38
0.44075418 -0.67068541 0.65173435 1.0879084e-38
0.34048882 -0.63738644 0.65348941 1.097128e-38
0.45386067 -0.62790322 0.6564976 1.097128e-38
0.33611399 -0.56530106 0.65584731 1.1063476e-38
0.26928586 -0.55894709 0.65845883 1.1164145e-41
0.27520186 -0.55893481 0.65521979 1.1164145e-41
0.28502956 -0.55891454 0.65497059 1.1164145e-41
0.29497531 -0.55889404 0.65508485 1.1164145e-41
0.30026722 -0.55888307 0.65572256 1.1164145e-41
0.37474853 -0.55243015 0.65760714 1.1063476e-38
0.38594338 -0.53725725 0.65149605 1.097128e-38
0.29439959 -0.52385569 0.65091681 1.1063476e-38
0.36695236 -0.48238114 0.65234256 1.1063476e-38
0.32458165 -0.45645913 0.65245372 1.1063476e-38
0.53024656 -0.45715749 0.65996403 1.097128e-38
0.58631849 -0.41658929 0.651335 1.097128e-38
0.46490046 -0.37090531 0.65115923 1.097128e-38
0.52316618 -0.37761751 0.6584211 3.0443545e-39
0.72462404 -0.36397219 0.6547479 1.097128e-38
0.80401397 -0.36441901 0.65426064 1.097128e-38
0.51813596 -0.32375425 0.65272224 3.2283927e-39
0.52091706 -0.32448718 0.65668935 3.136553e-39
0.51881838 -0.31611416 0.65135092 3.5975437e-39
0.52127194 -0.31473985 0.65513051 3.3205883e-39
0.54583049 -0.31605566 0.65102935 1.0694696e-38
0.35305262 -0.30132139 0.65555507 1.0879084e-38
0.44457704 -0.30494523 0.65740877 1.0879084e-38
0.51945072 -0.30983979 0.65043616 2.9517932e-39
0.52172911 -0.30519795 0.65428168 3.136553e-39
0.52379972 -0.29490075 0.65508109 3.2283773e-39
0.3298555 -0.28279084 0.65101194 7.8366285e-39
0.52530867 -0.28473753 0.65516222 2.9517932e-39
0.52631509 -0.27526134 0.65494269 7.8373894e-39
0.4951978 -0.26953653 0.65496963 4.4269064e-39
0.52753073 -0.26514742 0.65520847 9.9556819e-39
0.49380717 -0.25483188 0.65621632 8.5742202e-39
0.52882922 -0.25484172 0.65473938 9.4954268e-39
0.53002608 -0.25041354 0.65955234 7.9262962e-39
0.69696015 -0.25848097 0.65063536 1.097128e-38
0.52962291 -0.24760659 0.65328085 9.4025095e-39
0.53037244 -0.24392468 0.65609717 8.2961619e-39
0.84834856 -0.24892248 0.6550259 1.097128e-38
0.53128922 -0.23490298 0.65493149 8.8489742e-39
0.53229719 -0.22490691 0.65503275 8.8489742e-39
0.5330478 -0.21498369 0.65556842 9.5865392e-39
0.84315968 -0.21924269 0.65170503 1.097128e-38
0.5163722 -0.20482963 0.65544719 1.0324829e-38
0.53359669 -0.20518647 0.65481853 1.1524094e-38
0.53494209 -0.19477002 0.65525132 8.7589758e-39
0.86673278 -0.19511402 0.65858084 1.097128e-38
0.53707755 -0.18485655 0.65496004 2.9517932e-39
0.53928685 -0.17789519 0.65511292 2.9517932e-39
0.54095381 -0.17300573 0.65504128 2.9517932e-39
0.54416311 -0.16462037 0.65483147 2.9517932e-39
0.59916699 -0.16488715 0.65470147 3.7743203e-39
0.74086237 -0.16947559 0.65140074 1.0879084e-38
0.54901952 -0.15899782 0.65602559 2.9517932e-39
0.55233735 -0.15704368 0.65819854 2.9517932e-39
0.882384 -0.14573908 0.65601003 1.097128e-38
0.83421719 -0.12027178 0.65032148 1.0879084e-38
0.4448235 -0.11251187 0.65491575 1.0879084e-38
0.53346777 -0.082386583 0.65161234 9.1842699e-39
0.6528427 -0.087998703 0.65213442 1.0879084e-38
0.34308752 -0.075688846 0.65121323 7.8366285e-39
0.4859612 -0.079465494 0.65171182 9.0351717e-39
0.51911938 -0.071438447 0.65495217 8.8162076e-39
0.52348524 -0.075606726 0.6541872 8.8162076e-39
0.48823032 -0.06613557 0.65628165 9.0953155e-39
0.50994217 -0.06119271 0.6575098 8.8162076e-39
0.51402235 -0.065801896 0.65530354 8.7243721e-39
0.50490302 -0.055328816 0.65522623 8.7243721e-39
0.45119628 -0.04303265 0.65086871 9.3751435e-39
0.49834985 -0.04439633 0.65525347 9.6621743e-39
0.49922514 -0.03920678 0.65041268 9.1842713e-39
0.5029971 -0.03480535 0.65416175 8.0815237e-39
0.50807673 -0.027419819 0.65562677 6.3366492e-39
0.51261514 -0.022507651 0.65495658 6.1529782e-39
0.59894222 -0.020748999 0.65897447 1.2631564e-38
0.49231622 -0.011404123 0.65293097 9.7471659e-39
0.51807863 -0.018036801 0.6540345 6.9794977e-39
0.52391678 -0.012930837 0.65449256 7.7141817e-39
0.52872115 -0.0083285915 0.65559477 8.7243721e-39
0.53381908 -0.0034964764 0.65460211 8.7243721e-39
0.50424111 0.00039367005 0.65043229 7.3479201e-39
0.5211432 0.0079015102 0.65512609 6.5203202e-39
0.53892899 0.0012459073 0.65516293 8.8162076e-39
0.54475921 0.0064833891 0.65532255 8.7243721e-39
0.39117447 0.013676278 0.65558052 1.0786889e-38
0.55515647 0.015708596 0.65487784 8.7243721e-39
0.56841677 0.015408342 0.6511327 4.8894064e-39
0.56475174 0.024164058 0.65511543 8.7243721e-39
0.57057428 0.02937313 0.65528947 8.8162076e-39
0.82808864 0.021914182 0.65454173 1.0879084e-38
0.55082655 0.033195388 0.65096301 1.0045361e-38
0.57593614 0.034175918 0.65489835 8.7243721e-39
0.58141923 0.039034057 0.65454197 8.8162076e-39
0.88865864 0.036682107 0.65291768 1.0786889e-38
0.5863995 0.043392166 0.65493321 8.7243721e-39
0.33423194 0.053499702 0.6579532 1.0786889e-38
0.43533671 0.16339469 0.65715063 7.1952388e-39
0.67571318 0.16707829 0.65149337 1.0786889e-38
0.45511374 0.19681494 0.65572023 6.8268206e-39
0.46502486 0.19454655 0.65473944 7.3760119e-39
0.47045118 0.19524939 0.65947175 6.4536941e-39
0.44747689 0.20639853 0.65478987 6.2740112e-39
0.45091075 0.20115893 0.65479428 6.9190163e-39
0.47746512 0.20585953 0.65647125 1.0786889e-38
0.43908748 0.21820278 0.6544978 6.0896213e-39
0.442568 0.21362166 0.65501332 6.1821757e-39
0.43444341 0.22479524 0.65466511 6.4584011e-39
0.42901474 0.23651358 0.65338242 6.2740112e-39
0.43078768 0.23246218 0.65570891 6.7346264e-39
0.70945466 0.23241462 0.65180254 1.0694693e-38
0.42842785 0.24289961 0.6553117 6.3658439e-39
0.43176198 0.24822176 0.65625972 5.7168493e-39
0.8651889 0.24885064 0.65488183 1.0786889e-38
0.43545094 0.25148204 0.65405124 6.4540542e-39
0.4527812 0.25667799 0.65686768 1.0694693e-38
0.67103171 0.26438549 0.6549716 1.0694693e-38
0.80285317 0.26853806 0.65162843 1.0694693e-38
0.64480942 0.30653602 0.6597268 1.0694693e-38
0.39159414 0.33428073 0.65875667 1.0694693e-38
0.77309382 0.33746782 0.65529406 1.0694693e-38
0.51087004 0.37069786 0.65656495 1.0694693e-38
0.31394756 0.41750616 0.65942597 7.467846e-39
0.31834733 0.43972489 0.65642208 1.0694693e-38
0.67206216 0.43671912 0.65055865 1.0602497e-38
0.76023525 0.43444148 0.65664369 1.0602497e-38
0.75363326 0.44934368 0.65363544 1.0602497e-38
0.33243555 0.47618455 0.65539455 1.0694693e-38
0.27522328 0.55483341 0.65369457 4.1326169e-39
0.28695646 0.55240178 0.65311146 4.1326169e-39
0.30819756 0.55261725 0.6597892 4.1326169e-39
0.26930583 0.56105256 0.65840226 4.1326169e-39
0.27519387 0.56106478 0.6551246 4.1326169e-39
0.28497183 0.56108493 0.65506583 4.1326169e-39
0.29480538 0.56110525 0.65506268 4.1326169e-39
0.30059871 0.56111717 0.65487814 4.1326169e-39
0.49347043 0.61439657 0.65072662 1.0602497e-38
0.37003875 0.63315243 0.65648288 1.0602497e-38
0.39521769 0.76448464 0.65536183 1.0602497e-38
0.30612612 -0.59519625 0.66965932 1.1164145e-41
0.26806369 -0.55894965 0.66565275 1.1164145e-41
0.27495137 -0.55893534 0.66499567 1.1164145e-41
0.28495371 -0.55891466 0.66493982 1.1164145e-41
0.29501238 -0.55889392 0.66508704 1.1164145e-41
0.3002488 -0.55888307 0.66357976 1.1164145e-41
0.31410092 -0.45775592 0.66532236 1.1063476e-38
0.59675372 -0.41638586 0.66195595 1.097128e-38
0.76881278 -0.40473139 0.66464603 1.1063476e-38
0.47453332 -0.39485008 0.66684878 1.097128e-38
0.52262926 -0.3304705 0.66463125 3.1365516e-39
0.53705388 -0.33640838 0.66234159 2.3986068e-39
0.51962119 -0.32420114 0.666067 2.3982467e-39
0.52244741 -0.32960624 0.66752613 3.1365516e-39
0.54341167 -0.32264143 0.66195971 5.0719101e-39
0.51981229 -0.3161765 0.66486156 2.9517932e-39
0.52013111 -0.31335711 0.66749233 2.9517932e-39
0.5198971 -0.30897495 0.66319758 2.9517932e-39
0.52134579 -0.30426839 0.66552138 2.9517932e-39
0.52411902 -0.29517695 0.66526192 2.9517932e-39
0.52650249 -0.28533089 0.66500294 4.4265477e-39
0.52766359 -0.27475423 0.66467428 1.1063481e-38
0.52882248 -0.26522458 0.6651513 7.0943691e-39
0.36355302 -0.25760743 0.66792625 1.0879084e-38
0.52960145 -0.25716585 0.66332406 6.8174221e-39
0.53045869 -0.25319949 0.66641802 5.892219e-39
0.53167498 -0.24483389 0.6647945 5.9844146e-39
0.53257388 -0.23510379 0.66509902 5.892219e-39
0.53369367 -0.22500521 0.66496432 6.2617246e-39
0.53487897 -0.21486996 0.66549766 6.8174249e-39
0.53525919 -0.20503949 0.66528106 8.4794686e-39
0.53603703 -0.19525051 0.66505468 1.0971288e-38
0.37875989 -0.18997923 0.66460997 1.0879084e-38
0.5381121 -0.18490468 0.66425276 3.0439874e-39
0.53957623 -0.17873639 0.6653232 2.9517932e-39
0.5411877 -0.17366795 0.66521597 2.9517932e-39
0.5446313 -0.1649479 0.66537261 2.9517932e-39
0.57211208 -0.16063569 0.66907519 3.1365544e-39
0.54905164 -0.15857746 0.6662215 2.9517932e-39
0.55395985 -0.15706983 0.66362906 3.0439958e-39
0.56238461 -0.15817776 0.6646679 3.1365544e-39
0.49652824 -0.095773026 0.66337162 1.0879083e-38
0.52893823 -0.081289783 0.66504055 8.8162076e-39
0.53139251 -0.083688967 0.66559464 8.8162076e-39
0.51900136 -0.071018197 0.6657868 8.8162076e-39
0.52375335 -0.075986661 0.66444725 8.8162076e-39
0.50958222 -0.060689766 0.66470313 8.7243721e-39
0.51412833 -0.065730304 0.66518408 8.7243721e-39
0.50430912 -0.054725673 0.66482657 8.9998786e-39
0.53849655 -0.058910992 0.66084564 1.0686048e-38
0.49812463 -0.04506287 0.66424364 9.8281988e-39
0.50049251 -0.046581302 0.66778356 1.0101905e-38
0.49852645 -0.03723843 0.66647291 9.0917141e-39
0.50217456 -0.031496607 0.66699338 6.0611427e-39
0.54036939 -0.033410806 0.66920233 8.7243721e-39
0.50661904 -0.027202565 0.66611034 6.7039912e-39
0.51258701 -0.0221748 0.66435176 6.3366492e-39
0.51770461 -0.017678453 0.66498274 7.5305107e-39
0.52330631 -0.012607177 0.66537553 8.7243721e-39
0.57593554 -0.011948796 0.6644727 1.0512192e-38
0.70782238 -0.018745467 0.66584456 1.0879084e-38
0.51053321 -0.0068148784 0.66355956 8.8208894e-39
0.52869892 -0.0077344575 0.66480792 8.8162076e-39
0.53370959 -0.0032346889 0.66502959 8.7243721e-39
0.53874522 0.0012993134 0.66527045 8.8162076e-39
0.54456592 0.0065571964 0.6644392 8.7243721e-39
0.54845363 0.010032265 0.66604012 8.8162076e-39
0.55487663 0.015586015 0.66536719 8.8162076e-39
0.56938899 0.015429514 0.66421044 1.0320148e-38
0.56528968 0.024626521 0.66464788 8.8180125e-39
0.57024503 0.029317297 0.66494024 8.8162076e-39
0.57555431 0.03415839 0.66541004 8.8162076e-39
0.58147287 0.039212786 0.66631377 8.9998786e-39
0.59860027 0.0323903 0.66868371 1.0217866e-38
0.58655477 0.042964205 0.66515446 9.0917141e-39
0.59288073 0.045552559 0.66771936 9.5508916e-39
0.59797293 0.051436923 0.66895455 8.7243721e-39
0.56525326 0.081521444 0.66493523 1.0786889e-38
0.58295017 0.09861508 0.6647253 8.9080431e-39
0.73335493 0.1421807 0.66160399 1.0786889e-38
0.36017466 0.17869818 0.66715097 1.0694693e-38
0.45601773 0.19672067 0.66496432 6.9190149e-39
0.46089143 0.19404715 0.66791183 9.0369752e-39
0.44745952 0.20621142 0.66467661 7.6558582e-39
0.45101643 0.20122935 0.6651324 6.826822e-39
0.4389917 0.2185262 0.66483492 3.0486327e-39
0.44261095 0.21343809 0.66519171 3.1419059e-39
0.56601679 0.21549919 0.66230476 1.0786889e-38
0.43423429 0.22488941 0.66519445 5.6290103e-39
0.42883515 0.23630729 0.66571105 7.0112119e-39
0.43044233 0.23094304 0.66489953 8.0242778e-39
0.42910433 0.24240033 0.6651997 6.0899801e-39
0.4317131 0.24708824 0.66395265 5.2569572e-39
0.4555645 0.24235885 0.66474688 5.0613625e-39
0.43666047 0.25260055 0.66510034 5.6242922e-39
0.44904774 0.25561717 0.66168737 6.1807366e-39
0.68372858 0.25059742 0.66001225 1.0694693e-38
0.46671009 0.35955954 0.66279739 1.0694693e-38
0.63457155 0.40674397 0.66222841 1.0602497e-38
0.5030663 0.44823167 0.66043782 1.0602497e-38
0.30222595 0.52464938 0.66343868 4.1326169e-39
0.2247057 0.54776514 0.66123575 4.1326169e-39
0.25862148 0.56264019 0.66710186 4.1326169e-39
0.26802778 0.56104994 0.66563177 4.1326169e-39
0.27487737 0.56106412 0.66504467 4.1326169e-39
0.28504169 0.5610851 0.66509646 4.1326169e-39
0.29506326 0.56110573 0.66509372 4.1326169e-39
0.30064812 0.56111723 0.66463357 4.1326169e-39
0.38960338 0.56625015 0.66857088 1.0602497e-38
0.28650758 0.58402175 0.66438425 4.1326169e-39
0.30592659 0.58081561 0.66775835 4.1326169e-39
0.37884432 0.63291597 0.66367418 1.0602497e-38
0.36958125 0.7427789 0.66875923 1.0602497e-38
0.40428558 0.76113701 0.66616023 1.0510302e-38
0.2314356 -0.57310873 0.67143518 1.1164145e-41
0.20394328 -0.55878913 0.67366296 1.1164145e-41
0.2663247 -0.55895323 0.67533875 1.1164145e-41
0.27502266 -0.55893528 0.67501193 1.1164145e-41
0.28495038 -0.5589146 0.6750474 1.1164145e-41
0.29496962 -0.55889398 0.67494273 1.1164145e-41
0.30026454 -0.55888313 0.67426968 1.1164145e-41
0.32686114 -0.54616445 0.67709607 1.1164145e-41
0.45057577 -0.38156593 0.67045939 2.9517932e-39
0.79836828 -0.36960375 0.67752409 1.097128e-38
0.56900179 -0.35473579 0.67994052 2.4908052e-39
0.51990288 -0.32428432 0.67162162 2.5826407e-39
0.52061534 -0.32388484 0.67618471 2.6748391e-39
0.52033371 -0.31505096 0.67450815 2.9517932e-39
0.56345487 -0.31627342 0.67512375 2.6752007e-39
0.50451887 -0.30272982 0.67983043 3.1361816e-39
0.52178371 -0.30498344 0.67478198 2.9517932e-39
0.51884395 -0.29237252 0.67865795 3.1361928e-39
0.52478307 -0.29487103 0.67491376 2.9517932e-39
0.52732641 -0.28515249 0.67490071 1.0141896e-38
0.46114621 -0.27776623 0.67146254 3.1365558e-39
0.52862996 -0.27524322 0.6751188 1.1708845e-38
0.55913365 -0.27658218 0.67563927 6.9280182e-39
0.52952796 -0.26616025 0.6734004 7.8308538e-39
0.53037059 -0.26280922 0.67688406 7.3698742e-39
0.5922839 -0.26029709 0.67085928 6.0762515e-39
0.52897811 -0.25268161 0.67921752 1.1708845e-38
0.53115088 -0.25512022 0.67498475 5.9833342e-39
0.53254145 -0.24538618 0.67489552 5.9833342e-39
0.53399611 -0.23504454 0.67486793 5.9836944e-39
0.53542614 -0.22484459 0.67497075 5.9833342e-39
0.53629911 -0.21520597 0.67480892 5.9833342e-39
0.53686571 -0.20512179 0.67489994 7.6464625e-39
0.53753251 -0.194823 0.67540926 1.1708845e-38
0.51606351 -0.18799743 0.67256963 4.7031318e-39
0.53838474 -0.18526222 0.67451799 3.8737383e-39
0.54030794 -0.18173313 0.67866462 2.9517932e-39
0.53964853 -0.1791178 0.6713444 2.9517932e-39
0.54236871 -0.17501177 0.6754384 2.9517932e-39
0.7302745 -0.17490874 0.67460835 1.097128e-38
0.54673231 -0.16502011 0.67498481 2.9517932e-39
0.54946882 -0.15878053 0.67510986 2.9517932e-39
0.55045831 -0.15676075 0.67587042 2.9517932e-39
0.49270362 -0.1350051 0.67777765 2.9517932e-39
0.52892965 -0.081226118 0.67378646 9.3769428e-39
0.53226066 -0.083828494 0.67485851 9.6589317e-39
0.51908553 -0.071223445 0.67354822 8.8223299e-39
0.52400559 -0.076416783 0.67546928 9.6600135e-39
0.54067594 -0.074137241 0.67666942 9.1860706e-39
0.50876784 -0.060116045 0.6724754 8.8162076e-39
0.51381975 -0.065600432 0.67516762 8.9195674e-39
0.50426823 -0.054858591 0.6751253 9.4756223e-39
0.45140052 -0.045824483 0.67549765 7.5305107e-39
0.49694327 -0.044495817 0.67685813 9.7648124e-39
0.54947293 -0.048676714 0.67611319 1.6318264e-38
0.49857906 -0.038010556 0.67409295 5.6044862e-39
0.50264299 -0.033300176 0.67414641 6.7039912e-39
0.4093 -0.020134464 0.67902225 1.0786889e-38
0.49851432 -0.020585874 0.67672545 1.2539686e-38
0.5077455 -0.027012872 0.67393672 6.1529782e-39
0.51274592 -0.021816911 0.67465132 7.2550042e-39
0.46606642 -0.0144834 0.67898607 1.0786889e-38
0.51764798 -0.017342074 0.67556238 8.7243721e-39
0.52277166 -0.012736296 0.67466295 8.7243721e-39
0.5169512 -0.0089886952 0.67140973 4.0588904e-39
0.52767277 -0.0083670886 0.67464942 8.7243721e-39
0.53359234 -0.0030215916 0.67564595 8.7243721e-39
0.5049141 0.0090710744 0.67794466 8.6577726e-39
0.53884226 0.001671422 0.67447084 8.8162076e-39
0.54388618 0.0062142978 0.6747492 8.7243721e-39
0.54880863 0.01065258 0.67640758 8.8162076e-39
0.55484027 0.015923383 0.6746906 8.8162076e-39
0.56470847 0.024414251 0.67466301 8.7243721e-39
0.57017338 0.029258391 0.67541748 8.8162076e-39
0.57520109 0.033983447 0.67523718 8.7243721e-39
0.58061814 0.039068948 0.67644167 8.8162076e-39
0.58326805 0.041522697 0.67828763 8.8162076e-39
0.55778742 0.054692149 0.67967105 8.8162076e-39
0.72947991 0.077142395 0.67532766 1.0786889e-38
0.83731848 0.11414436 0.67045999 1.0786889e-38
0.50219941 0.18932767 0.67907423 3.7818719e-39
0.43600371 0.19408086 0.67105496 6.1821757e-39
0.45587918 0.19691716 0.67516679 7.4714642e-39
0.46416515 0.19412428 0.67342597 7.6533219e-39
0.44751489 0.20638247 0.67519444 6.2740112e-39
0.45108575 0.20141803 0.67501986 6.3662054e-39
0.39498654 0.21635202 0.6712184 5.9807867e-39
0.43896613 0.21869461 0.67513227 2.5826183e-39
0.44259816 0.21377721 0.67478323 2.9506763e-39
0.39110363 0.22867431 0.67139536 1.0694693e-38
0.43435523 0.22513677 0.67500758 4.3364835e-39
0.4296996 0.23597915 0.67275083 6.1821757e-39
0.43055072 0.23297998 0.67554712 6.1821757e-39
0.42939395 0.24305934 0.67518431 6.1818156e-39
0.43194866 0.24805002 0.67644435 5.9023252e-39
0.4360722 0.25193924 0.67542565 6.0856318e-39
0.88881892 0.28915435 0.67033201 1.0694693e-38
0.36006328 0.41370228 0.67012578 1.0694693e-38
0.26651871 0.56104678 0.67542136 4.1326169e-39
0.27507794 0.56106448 0.67494416 4.1326169e-39
0.28498137 0.56108493 0.67513245 4.1326169e-39
0.29498556 0.56110561 0.67505032 4.1326169e-39
0.30061802 0.56111723 0.67491239 4.1326169e-39
0.31855261 0.5612613 0.67846918 4.1326169e-39
0.25388366 0.57871163 0.67342126 4.1326169e-39
0.44551075 0.57205296 0.67262882 1.0602497e-38
0.25920627 -0.55896789 0.68811148 1.1164145e-41
0.26514459 -0.55895561 0.6850397 1.1164145e-41
0.27500632 -0.55893523 0.6850611 1.1164145e-41
0.285108 -0.5589143 0.68499953 1.1164145e-41
0.29504555 -0.55889386 0.68501443 1.1164145e-41
0.30031869 -0.55888295 0.68513721 1.1164145e-41
0.5897519 -0.44260204 0.68846399 1.097128e-38
0.52452898 -0.33061981 0.68540406 1.3837052e-39
0.54781854 -0.33056164 0.68560487 2.9521561e-39
0.52285802 -0.32470042 0.68423843 2.3986068e-39
0.52095068 -0.31501326 0.68425512 2.9517932e-39
0.54099667 -0.31781048 0.68334186 2.9517932e-39
0.36554176 -0.30797368 0.6800738 7.9288242e-39
0.52190149 -0.30512694 0.68519217 2.9517932e-39
0.52497673 -0.29513592 0.6849454 2.9517932e-39
0.52795923 -0.28504944 0.68502784 1.0786899e-38
0.53998142 -0.28624347 0.68781912 6.3626349e-39
0.52941614 -0.27567068 0.68484038 1.1708845e-38
0.5300979 -0.27102342 0.68615812 1.1801041e-38
0.52998614 -0.2692095 0.6805467 1.1801041e-38
0.53083825 -0.26506805 0.6854881 1.1708845e-38
0.53210467 -0.25484326 0.68479234 1.0231909e-38
0.53359103 -0.24478506 0.68507856 9.2163134e-39
0.53505033 -0.23525181 0.68494546 8.9390062e-39
0.53658032 -0.22532177 0.68496615 9.1241177e-39
0.53785461 -0.21463317 0.68491805 9.9549616e-39
0.52500427 -0.20662966 0.68416148 1.0324106e-38
0.53832936 -0.20500182 0.68463266 1.1524452e-38
0.54551971 -0.20832025 0.68099922 2.8685813e-39
0.48411271 -0.19017112 0.68433946 2.7878833e-39
0.52011788 -0.19357534 0.68175304 2.7903986e-39
0.53887111 -0.19537224 0.68499744 1.1155677e-38
0.53935665 -0.18687522 0.68410206 4.4269064e-39
0.54061764 -0.18291192 0.68632495 2.9517932e-39
0.54223043 -0.17518036 0.68582314 2.9517932e-39
0.5453245 -0.16498241 0.68680537 2.9517932e-39
0.54870629 -0.15858348 0.68494672 2.9517932e-39
0.55393833 -0.15657334 0.68620479 2.9521575e-39
0.56416696 -0.14507164 0.68026555 2.9517946e-39
0.5084545 -0.13608077 0.68418574 2.9517932e-39
0.57134753 -0.13208987 0.68875009 3.1365544e-39
0.51477921 -0.081599981 0.68512833 9.1914726e-39
0.52877188 -0.081010722 0.68628657 1.2630437e-38
0.53314215 -0.083746314 0.68653506 1.3829703e-38
0.51827735 -0.07127817 0.685274 9.0351717e-39
0.52355486 -0.076223001 0.68476593 1.0879083e-38
0.6550498 -0.073217392 0.68341994 1.4750939e-38
0.5089913 -0.060811929 0.68512762 9.0351717e-39
0.51320761 -0.065660328 0.68564719 9.0351717e-39
0.50443304 -0.055185378 0.68515044 1.0786889e-38
0.51745307 -0.050159253 0.68321824 8.8208894e-39
0.49757585 -0.044230867 0.68386739 1.1431894e-38
0.50077564 -0.048621342 0.68564492 1.1616285e-38
0.51192659 -0.047341838 0.68188679 1.134042e-38
0.49785185 -0.037036609 0.68708903 8.293641e-39
0.50231689 -0.032302592 0.68575561 8.5561869e-39
0.53625494 -0.030190898 0.68225962 8.8162076e-39
0.49792871 -0.021258853 0.68220198 1.0786889e-38
0.50754577 -0.026554849 0.68524235 7.9986915e-39
0.51239473 -0.021761015 0.6844694 9.0978364e-39
0.52868086 -0.028121715 0.68862474 1.4013014e-38
0.53779829 -0.020012161 0.68402326 4.8893938e-39
0.51700425 -0.017579762 0.68589348 9.4713007e-39
0.52255774 -0.012617926 0.68425566 9.1907523e-39
0.76253331 -0.019273793 0.68717301 1.0879084e-38
0.52749598 -0.0081073474 0.68520325 9.4713007e-39
0.53339159 -0.0028332712 0.68492585 6.5261174e-39
0.53851169 0.0017256569 0.68447077 6.2498948e-39
0.5434674 0.006191622 0.68506718 5.7918048e-39
0.64011562 0.0068208594 0.68839449 1.9637301e-38
0.54881084 0.010991455 0.68495351 5.7003294e-39
0.55507541 0.016468655 0.68448347 6.3446114e-39
0.56512237 0.025020428 0.68543398 1.0216428e-38
0.57000881 0.029206255 0.68458253 9.8433244e-39
0.59603673 0.02867955 0.68082625 1.4198121e-38
0.57561779 0.034337148 0.68478239 1.0123151e-38
0.58053488 0.038950257 0.68546653 1.0403699e-38
0.58558542 0.043127034 0.68532985 1.0496975e-38
0.55679923 0.051397033 0.68242627 1.0318706e-38
0.81048864 0.18537439 0.68067443 1.0786889e-38
0.45616004 0.1976105 0.68481714 6.8271836e-39
0.4625203 0.1942572 0.68520665 7.8395222e-39
0.44738305 0.20675516 0.68484235 7.2870785e-39
0.45122233 0.20148325 0.68509942 7.4714684e-39
0.439013 0.21853498 0.68519163 2.765569e-39
0.44250724 0.21369445 0.68491966 3.22618e-39
0.45106977 0.21768737 0.68250233 7.8391607e-39
0.43480247 0.22483173 0.68477774 5.0725995e-39
0.42874786 0.23634468 0.68513232 8.116472e-39
0.43102598 0.23163603 0.68504328 8.2086691e-39
0.41106361 0.24270599 0.68591398 7.9299088e-39
0.42877907 0.24157928 0.68378901 6.2725623e-39
0.43203431 0.24633299 0.68513805 5.9012406e-39
0.43505552 0.25078252 0.68634176 6.085992e-39
0.44025201 0.25428015 0.68396139 6.8231969e-39
0.36437747 0.35912234 0.68063021 1.0694693e-38
0.83582824 0.44233128 0.68479347 1.0694693e-38
0.25916973 0.56103158 0.6879524 4.1326169e-39
0.26495382 0.56104356 0.68507189 4.1326169e-39
0.27490959 0.56106412 0.68502557 4.1326169e-39
0.28483909 0.56108469 0.68505639 4.1326169e-39
0.29482579 0.56110537 0.68499261 4.1326169e-39
0.30052561 0.56111705 0.68414503 4.1326169e-39
0.27261004 0.60862046 0.68346137 4.1326169e-39
0.39893684 0.66243589 0.68056762 1.0602497e-38
0.25775826 -0.55897099 0.69591284 1.1164145e-41
0.26496533 -0.55895597 0.69502962 1.1164145e-41
0.27502459 -0.55893528 0.6950919 1.1164145e-41
0.28498605 -0.5589146 0.69494301 1.1164145e-41
0.29495081 -0.55889404 0.69502831 1.1164145e-41
0.30029383 -0.55888307 0.69500822 1.1164145e-41
0.31044522 -0.50862807 0.69869274 1.1164145e-41
0.5220136 -0.32398039 0.69548994 2.8595961e-39
0.5043391 -0.31411561 0.69713831 2.5826421e-39
0.52132148 -0.31441614 0.69532049 2.9517932e-39
0.50647795 -0.30204767 0.69625312 2.9517932e-39
0.52321148 -0.30483189 0.69472605 2.9517932e-39
0.52596158 -0.29487392 0.69484365 2.9517932e-39
0.52858132 -0.28495553 0.69491118 9.4965338e-39
0.54344147 -0.2875385 0.69221115 1.0785445e-38
0.52969474 -0.27764177 0.69272751 1.1708845e-38
0.53067094 -0.27381027 0.69575781 1.1708845e-38
0.53186393 -0.26476252 0.69506586 1.1708845e-38
0.53317404 -0.25520396 0.69494951 1.1708845e-38
0.53460085 -0.24508803 0.69501925 1.1708845e-38
0.54062808 -0.24322696 0.6929509 1.115531e-38
0.47572637 -0.23856273 0.69534659 2.7896798e-39
0.53603768 -0.23469749 0.6950115 1.1708845e-38
0.54648256 -0.23488075 0.69117534 5.9844146e-39
0.5373584 -0.22485982 0.69503766 1.1708845e-38
0.53863823 -0.21538219 0.69519013 1.1708845e-38
0.53951198 -0.20589986 0.69342166 1.1708845e-38
0.54033703 -0.20306925 0.69746667 8.3905562e-39
0.53978479 -0.19621414 0.69104975 1.0141896e-38
0.54066712 -0.19474399 0.69580597 5.7172725e-39
0.54136932 -0.18491626 0.69503236 2.9517932e-39
0.53505456 -0.17461495 0.69630623 2.9517932e-39
0.54372072 -0.17488055 0.69439089 2.9517932e-39
0.54734331 -0.16487677 0.69378656 2.9517932e-39
0.54952198 -0.15942132 0.69456035 2.9517932e-39
0.55161291 -0.15783542 0.69606286 2.9517932e-39
0.56428564 -0.15806055 0.6904999 3.0443545e-39
0.52966857 -0.096890844 0.69790304 1.8530957e-38
0.53588307 -0.082478173 0.69399726 1.5765451e-38
0.54133004 -0.082355849 0.69845194 1.9637305e-38
0.51870757 -0.071355172 0.69428378 9.0351717e-39
0.52394867 -0.075895458 0.69521517 1.1893235e-38
0.50911123 -0.060228247 0.69389147 9.0351717e-39
0.51417559 -0.065393247 0.69608516 9.6805411e-39
0.52419567 -0.064147733 0.69012618 1.871571e-38
0.55777961 -0.066485196 0.69990551 1.9637664e-38
0.56924582 -0.063359216 0.69037956 4.8894064e-39
0.57128 -0.069555461 0.69835502 1.9637664e-38
0.50468236 -0.054832865 0.69527638 1.0694693e-38
0.51047671 -0.059943609 0.69956809 1.0325911e-38
0.49785981 -0.044217441 0.69583195 1.1340781e-38
0.50010896 -0.041350096 0.69889015 1.1156753e-38
0.53601325 -0.04824375 0.69764102 1.6410105e-38
0.54302704 -0.046172276 0.69357264 1.1524094e-38
0.49882635 -0.038560413 0.69367146 8.8496903e-39
0.50262243 -0.03466611 0.69566202 1.1524089e-38
0.50750273 -0.027529487 0.69522989 1.2353853e-38
0.51226789 -0.022716206 0.69590795 1.2538244e-38
0.51749104 -0.017732425 0.69499725 1.1985068e-38
0.5232324 -0.012748707 0.69585502 1.2169459e-38
0.64312571 -0.017023478 0.69404602 1.8162173e-38
0.50815588 -0.0063288659 0.69855392 1.0960473e-38
0.5279035 -0.0083450414 0.69528651 1.2354213e-38
0.53374767 -0.0033907483 0.69584537 4.7953302e-39
0.53869265 0.0016889104 0.6943692 2.9517932e-39
0.54461789 0.0059645441 0.69618458 2.951433e-39
0.55089647 0.0015754336 0.69371092 1.2815948e-38
0.54881769 0.010730736 0.69343567 2.9517932e-39
0.55521023 0.015221211 0.69581002 4.6113019e-39
0.56098652 0.019248966 0.69838047 1.0602497e-38
0.57969844 0.017707378 0.69347346 1.4013736e-38
0.62074465 0.018870458 0.69812614 1.5304475e-38
0.56555146 0.024084993 0.69537157 1.0694692e-38
0.5711419 0.028351836 0.69700319 1.0233714e-38
0.57600963 0.033407804 0.69448775 1.0417745e-38
0.58238149 0.037967183 0.69589674 9.8649324e-39
0.58702427 0.042057753 0.6939435 1.050994e-38
0.59137541 0.044507574 0.69587505 9.5883455e-39
0.58562601 0.066954926 0.69603378 1.5120443e-38
0.4565143 0.19781227 0.69530356 6.1818128e-39
0.46351349 0.19441268 0.69488811 7.7469609e-39
0.47053665 0.19689393 0.6987431 8.573832e-39
0.3805241 0.20489165 0.69929284 6.5505953e-39
0.39384532 0.20852658 0.69794661 4.4170749e-39
0.44769305 0.20662445 0.69461036 6.0899801e-39
0.45134467 0.20178162 0.69546592 6.0899801e-39
0.4278948 0.21484709 0.69352514 5.7194025e-39
0.43899804 0.21904404 0.69442803 4.9829235e-39
0.44264302 0.21391046 0.69542778 5.4438974e-39
0.43489295 0.22509769 0.69526827 5.8130358e-39
0.42919883 0.23660313 0.69460207 6.0896171e-39
0.43069887 0.23188862 0.69629633 6.0896185e-39
0.41924831 0.24347351 0.69662589 6.272558e-39
0.42944676 0.2411478 0.69438875 6.5495079e-39
0.43206742 0.24572012 0.6958952 5.8101338e-39
0.43722019 0.25161448 0.69672894 5.6246537e-39
0.44168267 0.25461039 0.69556552 5.6235719e-39
0.38330248 0.26973429 0.69492179 5.9037769e-39
0.45387647 0.26979521 0.69807404 5.9005189e-39
0.28251395 0.55644834 0.69224006 4.1326169e-39
0.25769109 0.56102854 0.69573319 4.1326169e-39
0.26483881 0.56104338 0.69504589 4.1326169e-39
0.27491501 0.56106418 0.69503719 4.1326169e-39
0.28491479 0.56108242 0.69502735 4.1326169e-39
0.2949 0.56110555 0.69492459 4.1326169e-39
0.30064434 0.56111735 0.69499522 4.1326169e-39
0.31240737 0.56851035 0.69310051 4.1326169e-39
0.28915104 0.57993841 0.69069266 4.1326169e-39
0.26346302 -0.56423438 0.70822132 1.1164145e-41
0.25605109 -0.55897444 0.70540363 1.1164145e-41
0.26486412 -0.55895621 0.70504332 1.1164145e-41
0.2749241 -0.55893528 0.70511228 1.1164145e-41
0.28501099 -0.55891448 0.70504546 1.1164145e-41
0.29497111 -0.55889404 0.70493925 1.1164145e-41
0.30020922 -0.55888319 0.70528871 1.1164145e-41
0.52662182 -0.3302241 0.70771509 1.3837052e-39
0.52301955 -0.324588 0.70550627 2.3982467e-39
0.52275991 -0.31517312 0.70539773 2.8599577e-39
0.52393603 -0.30506474 0.70493001 2.8599577e-39
0.51343995 -0.29341957 0.70409638 2.7860868e-39
0.52648616 -0.29506758 0.70498061 2.8599577e-39
0.52886862 -0.28597489 0.70466459 7.6540772e-39
0.53030825 -0.2812359 0.70658088 1.0697578e-38
0.5317263 -0.27526674 0.70507139 1.0880893e-38
0.53320098 -0.26510799 0.70491081 1.1157473e-38
0.53463125 -0.25510192 0.7047962 1.143298e-38
0.55391115 -0.25086147 0.70067066 2.8732518e-39
0.5360139 -0.24494369 0.70517516 1.1341144e-38
0.53708494 -0.23521869 0.70479321 1.1708845e-38
0.5165379 -0.22585353 0.70372689 8.8511714e-39
0.52022493 -0.22743137 0.70780247 6.8254039e-39
0.53828591 -0.22510558 0.70501274 1.1708846e-38
0.53935581 -0.21572094 0.70434606 7.3764169e-39
0.54025847 -0.21189834 0.70818734 2.9517932e-39
0.5398981 -0.2093733 0.70113438 6.4548291e-39
0.54084933 -0.20479132 0.70504326 3.1361816e-39
0.54202121 -0.19496924 0.70500183 2.9517932e-39
0.54358006 -0.18480743 0.70514554 2.8599577e-39
0.54558438 -0.17490967 0.70503181 2.9517932e-39
0.54768836 -0.16514884 0.7048564 2.9517932e-39
0.55039954 -0.16094269 0.70730901 2.9517932e-39
0.56077981 -0.16618299 0.70861667 3.043993e-39
0.55489641 -0.15749353 0.70555621 2.9517932e-39
0.5603286 -0.15484911 0.70906591 2.9517932e-39
0.5494163 -0.14462274 0.70220745 3.5057082e-39
0.57362247 -0.097403377 0.70187652 1.9176691e-38
0.53492147 -0.080987938 0.70180327 1.9176691e-38
0.52620566 -0.074344747 0.70269883 1.5673257e-38
0.53444868 -0.074911579 0.7056852 1.6687045e-38
0.54297739 -0.072911307 0.70603931 1.8530599e-38
0.55068231 -0.072065711 0.70140171 1.8807544e-38
0.5086332 -0.068794437 0.70875156 9.3117586e-39
0.51752472 -0.063585386 0.70223826 1.1801041e-38
0.52452928 -0.065344982 0.70528406 1.4566548e-38
0.53514606 -0.064901643 0.70662642 1.8992296e-38
0.54414022 -0.064387843 0.70693624 1.9268884e-38
0.55423701 -0.064270526 0.70378089 1.6870354e-38
0.5615328 -0.061479799 0.70266145 1.6410105e-38
0.50675768 -0.053093974 0.70321786 1.2722634e-38
0.51421154 -0.055386022 0.70560861 1.3460562e-38
0.52503097 -0.05482785 0.7064051 1.5212279e-38
0.53533173 -0.055056877 0.70608258 1.770156e-38
0.5452823 -0.055276718 0.7064622 1.9084132e-38
0.5547719 -0.05423592 0.70689267 1.9453275e-38
0.56403804 -0.054183096 0.7057389 1.5581464e-38
0.57245016 -0.052351635 0.70285022 4.889405e-39
0.49934912 -0.046387963 0.70121223 1.2539686e-38
0.50455141 -0.044986036 0.70502388 1.336728e-38
0.51483834 -0.044639647 0.70657164 1.6595213e-38
0.52482033 -0.04525125 0.70576155 1.5027888e-38
0.53558064 -0.044668365 0.70593148 1.4935696e-38
0.54527134 -0.04508299 0.70580387 1.7148024e-38
0.55480087 -0.04495405 0.7063489 1.9361081e-38
0.56454241 -0.045055427 0.70667857 1.6964746e-38
0.57396561 -0.043905575 0.70594388 5.0737991e-39
0.58231127 -0.042583361 0.70330083 4.8894064e-39
0.50614971 -0.036016732 0.70383155 1.281483e-38
0.51526242 -0.034617409 0.7053166 1.8807901e-38
0.52488524 -0.034845997 0.70507073 1.5857648e-38
0.5348593 -0.035101 0.70536125 1.5027888e-38
0.54542881 -0.034954786 0.70574433 1.5027888e-38
0.55495065 -0.035024919 0.70614719 1.4751688e-38
0.56441367 -0.035053808 0.70636398 6.3641595e-39
0.57468832 -0.034904514 0.70630062 4.8894064e-39
0.58400923 -0.034647595 0.70591515 4.8894064e-39
0.59196562 -0.031793561 0.704606 8.2991649e-39
0.45391637 -0.029305443 0.70626295 1.6318265e-38
0.50857836 -0.028862124 0.70110428 1.3368002e-38
0.51513642 -0.025781546 0.70277745 1.511972e-38
0.5246166 -0.025014823 0.70418864 1.8530956e-38
0.53510636 -0.024861215 0.70553386 1.5765453e-38
0.54502267 -0.025013933 0.70612013 1.4014111e-38
0.55441976 -0.02494888 0.70635635 6.6403765e-39
0.5645414 -0.025013594 0.70635211 4.8894064e-39
0.57478493 -0.025244113 0.70634276 4.8894064e-39
0.58486593 -0.025025934 0.70642108 4.889405e-39
0.5939461 -0.024025453 0.70618224 8.2995167e-39
0.60201871 -0.022886287 0.70357871 1.871499e-38
0.64316308 -0.026204515 0.70616436 1.9453276e-38
0.51883268 -0.019235961 0.7007122 1.3368362e-38
0.52586997 -0.016251961 0.70227617 1.4935331e-38
0.53491819 -0.014909911 0.70447922 1.6595229e-38
0.54486316 -0.014865834 0.70608419 5.9953686e-39
0.55448508 -0.01528475 0.70650524 4.8890463e-39
0.5644691 -0.014822518 0.70644093 4.8894064e-39
0.57447922 -0.014996485 0.70640785 4.8894064e-39
0.58482093 -0.01466089 0.70647424 4.889405e-39
0.59483218 -0.015237181 0.70644706 1.0327451e-38
0.6048066 -0.01450643 0.70495993 1.97295e-38
0.61423069 -0.01301956 0.70303518 2.0098646e-38
0.62040991 -0.010105539 0.70236778 2.046743e-38
0.53620273 -0.0063867727 0.70208925 5.072671e-39
0.54476511 -0.0047928137 0.70463812 4.2436586e-39
0.55443162 -0.0051843249 0.70657194 4.8890449e-39
0.56442773 -0.0046355245 0.70649183 4.8894078e-39
0.57476765 -0.0048752427 0.70620543 4.9812433e-39
0.58514333 -0.0051122187 0.70609337 8.3917081e-39
0.59558243 -0.0053478787 0.70612073 1.8715351e-38
0.60572052 -0.0055923802 0.7054739 1.9821325e-38
0.6149745 -0.004473893 0.70559263 1.9360714e-38
0.62272364 -0.0039666663 0.70514661 1.9361081e-38
0.54664618 0.0031135429 0.70232058 3.6901051e-39
0.55465674 0.0051613562 0.70475692 4.0588988e-39
0.56451541 0.0047629867 0.70638448 4.9812433e-39
0.57497865 0.0046037054 0.70595139 7.7463485e-39
0.58556777 0.0046266639 0.70575052 1.5027892e-38
0.59493703 0.0051113875 0.70564169 1.5304475e-38
0.60423243 0.0049851784 0.70595092 1.7885591e-38
0.61432689 0.0056008054 0.70704055 1.8991934e-38
0.62156725 0.0040527591 0.70703477 1.8991571e-38
0.55706662 0.011635287 0.70179474 4.4272988e-39
0.56503791 0.015150384 0.70406222 1.0511061e-38
0.57544869 0.014878234 0.70538491 1.6134242e-38
0.58545023 0.014818228 0.70543277 1.5120083e-38
0.59497881 0.015725218 0.70534879 1.5120083e-38
0.60446918 0.015516495 0.70568013 1.5027888e-38
0.61418152 0.014922398 0.70588541 1.604204e-38
0.62117028 0.014599572 0.70446622 1.6963996e-38
0.56807548 0.022198265 0.70139426 1.0602497e-38
0.57483387 0.025172807 0.70320189 1.539667e-38
0.58484775 0.025117593 0.70422429 1.539667e-38
0.59463066 0.025301082 0.70494473 1.5120083e-38
0.60443521 0.024702989 0.70469648 1.5304475e-38
0.61279827 0.023906955 0.70233101 1.4935692e-38
0.57810187 0.031746455 0.70156717 1.2262019e-38
0.58560485 0.034670305 0.70276868 1.659485e-38
0.59439224 0.034485199 0.70459741 1.6871799e-38
0.60395592 0.03201203 0.70299274 1.5765451e-38
0.58841664 0.04046395 0.70098138 1.3091779e-38
0.59172875 0.041304454 0.70201153 1.4658738e-38
0.4573051 0.19807032 0.70379525 4.6021907e-39
0.46439621 0.19742674 0.70457888 6.4461005e-39
0.4719303 0.19865316 0.70299673 8.1103245e-39
0.44849792 0.20783669 0.70345449 4.5125286e-39
0.45341927 0.20380019 0.7066347 4.7854959e-39
0.46531674 0.20112596 0.70838505 6.1648164e-39
0.47428104 0.20500144 0.70763469 6.6265162e-39
0.42910632 0.21301909 0.7099582 4.6021907e-39
0.43976831 0.2192657 0.70121843 4.9774836e-39
0.44497964 0.21500194 0.7057901 4.4178008e-39
0.4502638 0.21041267 0.70929044 4.6925786e-39
0.47729531 0.21817546 0.70891708 6.7169056e-39
0.43675447 0.22564395 0.70485896 4.3263282e-39
0.44179863 0.22203399 0.70828873 4.7844141e-39
0.47333741 0.22403851 0.70920837 6.5328759e-39
0.42975584 0.23739402 0.70114106 3.7727901e-39
0.43305993 0.23464166 0.7060653 4.3248821e-39
0.46913701 0.23260489 0.70838833 6.4410404e-39
0.40582904 0.24359578 0.70164382 4.9774836e-39
0.43421772 0.24472375 0.70597982 4.2330452e-39
0.44055945 0.24924152 0.70929205 3.9564597e-39
0.45855218 0.24938355 0.7066806 6.2570106e-39
0.46223435 0.24469852 0.70782346 6.3488461e-39
0.42384273 0.25828832 0.70484149 4.5092734e-39
0.43830004 0.251187 0.70186204 4.2355759e-39
0.44479358 0.25291964 0.70584482 4.3252408e-39
0.45275322 0.25213864 0.70798564 5.7971157e-39
0.24066058 0.56424308 0.70454371 4.1326169e-39
0.25607911 0.56102532 0.70546025 4.1326169e-39
0.26501355 0.56104368 0.70510817 4.1326169e-39
0.27503964 0.56106442 0.70502257 4.1326169e-39
0.28493112 0.56108481 0.70501703 4.1326169e-39
0.29496425 0.56110561 0.70500767 4.1326169e-39
0.30053163 0.56111711 0.70453066 4.1326169e-39
0.23960143 -0.58166593 0.71914679 1.1164145e-41
0.27342191 -0.56652385 0.71466279 1.1164145e-41
0.24957891 -0.5589878 0.71538705 1.1164145e-41
0.25515351 -0.55897629 0.71477789 1.1164145e-41
0.26502046 -0.55895585 0.71509618 1.1164145e-41
0.27503446 -0.55893511 0.71504551 1.1164145e-41
0.28492236 -0.55891472 0.71506321 1.1164145e-41
0.29496706 -0.55889392 0.71499676 1.1164145e-41
0.30032295 -0.55888289 0.71490878 1.1164145e-41
0.30847746 -0.53712893 0.7159754 1.1164145e-41
0.24102074 -0.51538283 0.7135036 1.1164145e-41
0.34785551 -0.49914834 0.71858144 1.1164145e-41
0.52892715 -0.33119473 0.71206933 3.043993e-39
0.53322911 -0.333583 0.7160846 2.9517974e-39
0.52469629 -0.32418165 0.7142213 2.3064084e-39
0.53063369 -0.32954597 0.71959424 2.9517932e-39
0.5242154 -0.31467971 0.71546417 2.7803387e-39
0.52536041 -0.30499497 0.71468365 2.789321e-39
0.50524288 -0.29818818 0.7106508 4.0703446e-39
0.52763867 -0.29497477 0.71508598 2.7900399e-39
0.57445854 -0.29702276 0.71777308 7.2038834e-39
0.52939934 -0.28770307 0.71407002 2.7900399e-39
0.5307526 -0.2831164 0.71543467 2.7907574e-39
0.53241819 -0.2752246 0.71508753 2.7907588e-39
0.53436136 -0.26513407 0.71502793 2.7903986e-39
0.53587377 -0.25474742 0.7150166 2.7907574e-39
0.49862835 -0.24761726 0.71680844 3.0439944e-39
0.53708184 -0.24508591 0.71498811 2.8825929e-39
0.5420211 -0.24096835 0.71276534 7.6634196e-39
0.53828192 -0.23515712 0.71481848 3.2502936e-39
0.53938818 -0.22552022 0.71443921 3.2502936e-39
0.54020774 -0.22197603 0.71813262 2.7903986e-39
0.53987163 -0.21808943 0.71119481 4.4387642e-39
0.54083073 -0.21459958 0.71558774 2.7903986e-39
0.5289557 -0.20098804 0.71194363 3.8737383e-39
0.54188454 -0.20510884 0.71490222 2.7871644e-39
0.56569344 -0.20315698 0.71123016 8.3905562e-39
0.54304963 -0.19482704 0.71536839 2.7875246e-39
0.58923876 -0.19320369 0.71185786 3.0443545e-39
0.54419237 -0.1854645 0.71541935 2.7868057e-39
0.54724938 -0.17524302 0.71445626 2.7810562e-39
0.54935628 -0.16758423 0.71386272 2.8685799e-39
0.55142218 -0.16316663 0.71437705 2.8667834e-39
0.55623692 -0.15833139 0.71361381 3.2301877e-39
0.56378162 -0.15680361 0.71362412 3.5979053e-39
0.51359552 -0.053784091 0.71307677 1.4474712e-38
0.54888117 -0.012307346 0.71305776 1.2447928e-38
0.50638682 -0.0054216171 0.71128279 8.7243721e-39
0.56775606 0.0018544728 0.71385962 1.7148026e-38
0.56965423 0.017917404 0.7165252 1.0602497e-38
0.55343688 0.044798769 0.71083075 4.604451e-39
0.45723003 0.20685118 0.71158177 5.5208917e-39
0.46491861 0.20602277 0.71219224 6.2570106e-39
0.47198835 0.20848896 0.71167326 6.3488461e-39
0.4485853 0.21727909 0.71110636 5.0606381e-39
0.454723 0.21510866 0.71306789 5.8885925e-39
0.46476847 0.21464345 0.7139312 6.4410404e-39
0.47327736 0.21441844 0.71184063 6.6247114e-39
0.43924221 0.22871034 0.71052855 5.1524736e-39
0.44547328 0.22546974 0.71205854 5.7045627e-39
0.45470473 0.22484498 0.7143203 6.1648164e-39
0.46422926 0.22489616 0.71334952 6.6247114e-39
0.47134876 0.22250801 0.71095353 6.6247114e-39
0.43789709 0.235897 0.71166927 5.1528323e-39
0.44464508 0.23463698 0.71360683 6.0729823e-39
0.45450217 0.23506315 0.71408719 6.4410404e-39
0.46330169 0.23396231 0.71189892 6.6247114e-39
0.43816838 0.24285309 0.71132129 4.9688026e-39
0.44468343 0.24489298 0.71285361 5.796757e-39
0.45363045 0.24381977 0.71307707 6.4406816e-39
0.46048963 0.24177317 0.7112776 6.5328759e-39
0.44760823 0.25044656 0.71087933 5.2446678e-39
0.24907272 0.56101072 0.71749157 4.1326169e-39
0.25497168 0.56102288 0.71505851 4.1326169e-39
0.26488966 0.56104344 0.71502948 4.1326169e-39
0.27489465 0.56106412 0.71491599 4.1326169e-39
0.28492114 0.56108487 0.71501404 4.1326169e-39
0.2948952 0.56110537 0.71505338 4.1326169e-39
0.30064791 0.56111735 0.71494883 4.1326169e-39
0.27580661 -0.58943027 0.72322237 1.1164145e-41
0.25756815 -0.55897123 0.72271109 1.1164145e-41
0.26509672 -0.55895567 0.72492188 1.1164145e-41
0.27496997 -0.55893523 0.72504497 1.1164145e-41
0.28494945 -0.55891472 0.72505718 1.1164145e-41
0.29494616 -0.55889386 0.72496957 1.1164145e-41
0.30025536 -0.55888313 0.72611946 1.1164145e-41
0.53573114 -0.33434314 0.72155476 2.9517932e-39
0.52565092 -0.32300851 0.72549087 1.9372531e-39
0.5253126 -0.31542915 0.72520548 2.7767444e-39
0.52673542 -0.30501527 0.72496873 2.7903986e-39
0.52875036 -0.29560953 0.72471225 2.7903986e-39
0.53020841 -0.29163077 0.72828853 2.7903986e-39
0.52987552 -0.28923461 0.7213679 2.7907588e-39
0.53146631 -0.28468794 0.72519112 2.7903986e-39
0.53351516 -0.27467659 0.72504598 2.7903986e-39
0.53537756 -0.2647697 0.72522068 2.7903986e-39
0.53677762 -0.25495726 0.72501957 2.7903986e-39
0.53803247 -0.24508423 0.72478223 2.7903986e-39
0.51202565 -0.23172678 0.72654092 2.7868057e-39
0.53928065 -0.23542951 0.72464764 2.7903986e-39
0.54019654 -0.23225911 0.72831059 2.7903986e-39
0.53971058 -0.22838618 0.72094226 2.7907588e-39
0.54086775 -0.2244387 0.72557533 2.7903986e-39
0.54200935 -0.21498573 0.72475296 2.7903986e-39
0.5433228 -0.20501782 0.72515225 2.7903986e-39
0.54431319 -0.19512339 0.7248646 2.7903986e-39
0.54528916 -0.18506618 0.72531921 2.7903986e-39
0.54665691 -0.17466554 0.72510815 2.7907602e-39
0.54853278 -0.16702849 0.72357506 2.8840362e-39
0.55271101 -0.16392301 0.72579813 2.9773164e-39
0.55737376 -0.15870212 0.72383314 2.965453e-39
0.56228065 -0.1562019 0.72749293 3.1415864e-39
0.5609647 -0.096705779 0.72888958 1.9637305e-38
0.60874462 -0.04255908 0.7296716 1.5949844e-38
0.53423762 -0.021652071 0.729204 4.600844e-39
0.5512135 0.0090947431 0.72894573 5.2581847e-39
