# .PCD v0.7 - Point Cloud Data file format
VERSION 0.7
FIELDS x y z rgb
SIZE 4 4 4 4
TYPE F F F F
COUNT 1 1 1 1
WIDTH 1005
HEIGHT 1
VIEWPOINT 0 0 0 1 0 0 0
POINTS 1005
DATA ascii
0.522241 -0.068481773 0.60999995 1.0879084e-38
0.6461975 -0.067466371 0.6099999 1.0879084e-38
0.65502399 -0.064997055 0.60999984 1.0879084e-38
0.66503882 -0.064965323 0.60999972 1.0879084e-38
0.67478418 -0.065085895 0.60999978 1.0879084e-38
0.68460673 -0.064983986 0.60999972 1.0879084e-38
0.69402462 -0.064949811 0.60999972 1.0879084e-38
0.70418906 -0.065072864 0.60999978 1.0879084e-38
0.71450239 -0.06519606 0.60999978 1.0879084e-38
0.72431618 -0.064690173 0.60999972 1.0879084e-38
0.73487681 -0.06505926 0.60999978 1.0879084e-38
0.74559563 -0.065432444 0.60999984 1.0879084e-38
0.75457567 -0.064675957 0.60999978 1.0879084e-38
0.76420796 -0.064883552 0.60999978 1.0879084e-38
0.77517271 -0.065533176 0.60999978 1.0879084e-38
0.78472471 -0.064489849 0.60999978 1.0879084e-38
0.794761 -0.064700544 0.60999978 1.0879084e-38
0.80474812 -0.065278903 0.60999978 1.0879084e-38
0.81473088 -0.065490529 0.60954243 1.0879084e-38
0.82513362 -0.064425953 0.60999978 1.0879084e-38
0.83404046 -0.064929888 0.60999978 1.0879084e-38
0.84456694 -0.065525502 0.60999978 1.0879084e-38
0.85546803 -0.064705774 0.60999972 1.0879084e-38
0.86449373 -0.064567037 0.60999978 1.0879084e-38
0.3299998 -0.054927107 0.60419923 0
0.33570465 -0.05469887 0.60999995 1.0786889e-38
0.34543386 -0.055224854 0.6099999 1.0786889e-38
0.35491517 -0.054710776 0.61000007 1.0786889e-38
0.36442408 -0.055400718 0.61000013 1.0786889e-38
0.3745977 -0.054705136 0.61000013 1.0786889e-38
0.38637796 -0.055382807 0.60999984 1.0786889e-38
0.39554125 -0.054863598 0.60999995 1.0786889e-38
0.40622666 -0.055317752 0.60999978 1.0786889e-38
0.41559228 -0.054756757 0.61000007 1.0786889e-38
0.42534372 -0.055184029 0.61000001 1.0786889e-38
0.43520284 -0.054955989 0.61000007 1.0786889e-38
0.44483307 -0.055013813 0.61000007 1.0786889e-38
0.45331728 -0.054927111 0.60999984 1.0786889e-38
0.46440652 -0.054888636 0.61000001 1.0786889e-38
0.47483176 -0.054792065 0.6099999 1.0879084e-38
0.48527998 -0.055126976 0.60999995 1.0879084e-38
0.49529043 -0.054880016 0.60999995 1.0879084e-38
0.50528002 -0.055309687 0.6099999 1.0879084e-38
0.51142961 -0.058391929 0.60999995 1.0879084e-38
0.65776646 -0.057616122 0.60939443 1.0879084e-38
0.6654231 -0.05512853 0.60999978 1.0879084e-38
0.67478412 -0.055002276 0.60999972 1.0879084e-38
0.68427467 -0.05487299 0.60999978 1.0879084e-38
0.69424886 -0.055161007 0.60999978 1.0879084e-38
0.70435613 -0.054961458 0.60966808 1.0879084e-38
0.71404082 -0.054882292 0.60999978 1.0879084e-38
0.72449994 -0.054932795 0.60999978 1.0879084e-38
0.73487687 -0.055492312 0.60999978 1.0879084e-38
0.74523288 -0.054877028 0.60999978 1.0879084e-38
0.75474334 -0.054623656 0.60999978 1.0879084e-38
0.76420784 -0.055121362 0.60999984 1.0879084e-38
0.77517277 -0.055697978 0.60999984 1.0879084e-38
0.78489929 -0.05422949 0.60999978 1.0879084e-38
0.79476106 -0.054734956 0.60999978 1.0879084e-38
0.80474824 -0.055246845 0.60999978 1.0879084e-38
0.81464541 -0.055540919 0.60999978 1.0879084e-38
0.82513362 -0.054258201 0.60999978 1.0879084e-38
0.83404046 -0.054702852 0.60999978 1.0879084e-38
0.84456682 -0.055228382 0.60999978 1.0879084e-38
0.85501248 -0.055453062 0.60999978 1.0879084e-38
0.8647328 -0.054790083 0.60999978 1.0879084e-38
0.32999977 -0.045014799 0.60404801 0
0.33570462 -0.045025147 0.60999995 1.0786889e-38
0.34538382 -0.044951621 0.6099999 1.0786889e-38
0.35491517 -0.044858009 0.61000013 1.0786889e-38
0.36442414 -0.045459349 0.61000013 1.0786889e-38
0.37459767 -0.044668954 0.61000013 1.0786889e-38
0.38646126 -0.045403395 0.60999984 1.0786889e-38
0.39545223 -0.044926651 0.60999995 1.0786889e-38
0.40631318 -0.045156386 0.60999984 1.0786889e-38
0.41532227 -0.045098241 0.61000001 1.0786889e-38
0.42545739 -0.044814602 0.61000001 1.0786889e-38
0.43486667 -0.045144252 0.61000007 1.0786889e-38
0.44504744 -0.045066439 0.61000001 1.0786889e-38
0.45331731 -0.044926595 0.60999984 1.0786889e-38
0.46435657 -0.04485222 0.609864 1.0786889e-38
0.47494501 -0.045217983 0.60999995 1.0786889e-38
0.48503113 -0.0449007 0.6097827 1.0786889e-38
0.4955284 -0.044979047 0.6099999 1.0879084e-38
0.50356185 -0.046043381 0.6099999 1.0879084e-38
0.6672256 -0.047892183 0.6099999 1.0879084e-38
0.67497331 -0.045120321 0.60999978 1.0879084e-38
0.68462223 -0.045132264 0.60999978 1.0879084e-38
0.69424891 -0.04493485 0.60999972 1.0879084e-38
0.70401049 -0.044733346 0.60999978 1.0879084e-38
0.71427161 -0.044951517 0.60999984 1.0879084e-38
0.72449994 -0.045434929 0.60999978 1.0879084e-38
0.73487687 -0.044968668 0.60999972 1.0879084e-38
0.74540591 -0.044495586 0.60999978 1.0879084e-38
0.75474346 -0.04492446 0.60999978 1.0879084e-38
0.76420784 -0.045359172 0.60999978 1.0879084e-38
0.77542382 -0.045336857 0.60999972 1.0879084e-38
0.78489941 -0.044329558 0.60999978 1.0879084e-38
0.79476106 -0.044769384 0.60999978 1.0879084e-38
0.80474824 -0.045214798 0.60999978 1.0879084e-38
0.8148756 -0.045666482 0.60999978 1.0879084e-38
0.82534438 -0.044389505 0.60999978 1.0879084e-38
0.83404028 -0.044475801 0.60999978 1.0879084e-38
0.84456682 -0.044931274 0.60999978 1.0879084e-38
0.85523158 -0.045392718 0.60999972 1.0879084e-38
0.86427176 -0.04548528 0.60999978 1.0879084e-38
0.32999977 -0.035342559 0.60404801 0
0.33592638 -0.035101175 0.61000001 1.0786889e-38
0.34502476 -0.034426872 0.60999995 1.0786889e-38
0.3549152 -0.035005253 0.61000007 1.0786889e-38
0.36450803 -0.035389934 0.61000007 1.0786889e-38
0.37494126 -0.03445876 0.61000013 1.0786889e-38
0.38567024 -0.034705553 0.60999995 1.0786889e-38
0.39528808 -0.035143591 0.60999995 1.0786889e-38
0.40528041 -0.034281779 0.61000001 1.0786889e-38
0.41546422 -0.035293683 0.61000007 1.0786889e-38
0.42534307 -0.034872893 0.61000001 1.0786889e-38
0.43503034 -0.034782369 0.61000007 1.0786889e-38
0.44483307 -0.035159606 0.61000007 1.0786889e-38
0.45331728 -0.034926075 0.60999984 1.0786889e-38
0.46533659 -0.034859288 0.61000007 1.0786889e-38
0.47472847 -0.035058554 0.60999995 1.0786889e-38
0.48509061 -0.034910358 0.60999984 1.0786889e-38
0.49546841 -0.035256341 0.61000001 1.0786889e-38
0.5043534 -0.033344593 0.60999984 1.0879084e-38
0.67742407 -0.038066313 0.6099999 1.0879084e-38
0.68469107 -0.035611354 0.60999978 1.0879084e-38
0.69424891 -0.03470869 0.60999978 1.0879084e-38
0.70418906 -0.035112318 0.60999978 1.0879084e-38
0.71445322 -0.035258949 0.60999984 1.0879084e-38
0.72449994 -0.034987267 0.60999972 1.0879084e-38
0.73487687 -0.034445018 0.60999978 1.0879084e-38
0.74540591 -0.034858547 0.60999978 1.0879084e-38
0.75474346 -0.035225268 0.60999978 1.0879084e-38
0.76423275 -0.03545044 0.60973287 1.0879084e-38
0.77510673 -0.034805842 0.60999978 1.0879084e-38
0.78489953 -0.034429628 0.60999978 1.0879084e-38
0.79476106 -0.034803811 0.60999978 1.0879084e-38
0.80474812 -0.035182748 0.60999978 1.0879084e-38
0.8148759 -0.035567023 0.60999978 1.0879084e-38
0.82490677 -0.035321318 0.60999978 1.0879084e-38
0.83404028 -0.034248769 0.60999978 1.0879084e-38
0.84456694 -0.034634165 0.60999978 1.0879084e-38
0.8552317 -0.035024617 0.60999978 1.0879084e-38
0.86449373 -0.035363715 0.60999978 1.0879084e-38
0.3299998 -0.02497945 0.60404801 0
0.3363156 -0.024911027 0.61000013 1.0786889e-38
0.34478268 -0.024700597 0.60999995 1.0786889e-38
0.3549152 -0.025152501 0.61000013 1.0786889e-38
0.36442414 -0.025339095 0.61000013 1.0786889e-38
0.37533391 -0.024628449 0.61000013 1.0786889e-38
0.38496712 -0.02504525 0.61000007 1.0786889e-38
0.39527258 -0.025361734 0.61000001 1.0786889e-38
0.40494299 -0.024774848 0.61000001 1.0786889e-38
0.41546431 -0.024876649 0.61000013 1.0786889e-38
0.42529532 -0.025288936 0.61000013 1.0786889e-38
0.43503046 -0.024940096 0.60999995 1.0786889e-38
0.44512695 -0.024944684 0.61000007 1.0786889e-38
0.45331731 -0.024925554 0.60999984 1.0786889e-38
0.46508923 -0.024911951 0.61000007 1.0786889e-38
0.47483179 -0.025015563 0.60999984 1.0786889e-38
0.4852173 -0.025251286 0.6099999 1.0786889e-38
0.49523455 -0.024916168 0.61000007 1.0786889e-38
0.50540751 -0.024628866 0.6099999 1.0786889e-38
0.51376832 -0.023735212 0.6099999 1.0786889e-38
0.68728811 -0.02825891 0.6099999 1.0879084e-38
0.69475681 -0.025975218 0.60999978 1.0879084e-38
0.70418912 -0.024813382 0.60999972 1.0879084e-38
0.71410578 -0.024937896 0.60999984 1.0879084e-38
0.72449988 -0.024539607 0.60999972 1.0879084e-38
0.73487681 -0.024878075 0.60999978 1.0879084e-38
0.74540591 -0.025221512 0.60999984 1.0879084e-38
0.75474346 -0.025526078 0.60999978 1.0879084e-38
0.7644552 -0.025309378 0.60999972 1.0879084e-38
0.77497572 -0.024499448 0.60999978 1.0879084e-38
0.78489929 -0.024529697 0.60999978 1.0879084e-38
0.79482639 -0.024881085 0.60970759 1.0879084e-38
0.80474818 -0.025150694 0.60999978 1.0879084e-38
0.8148756 -0.02546755 0.60999978 1.0879084e-38
0.82513362 -0.025788482 0.60999978 1.0879084e-38
0.83427018 -0.024657357 0.60999978 1.0879084e-38
0.84456682 -0.02433705 0.60999978 1.0879084e-38
0.8552317 -0.024656512 0.60999978 1.0879084e-38
0.86449373 -0.024933958 0.60999978 1.0879084e-38
0.32999977 -0.014616338 0.60404801 0
0.33638832 -0.014646111 0.61000007 1.0786889e-38
0.34478268 -0.014942268 0.61000001 1.0786889e-38
0.35491529 -0.01529974 0.61000007 1.0786889e-38
0.36447433 -0.015272632 0.61000007 1.0786889e-38
0.37539318 -0.01453128 0.60998088 1.0786889e-38
0.38489851 -0.014937878 0.60991383 1.0786889e-38
0.39538929 -0.015266254 0.60999995 1.0786889e-38
0.40458521 -0.015237594 0.61000001 1.0786889e-38
0.41566673 -0.014808838 0.61000007 1.0786889e-38
0.42529529 -0.014780291 0.61000013 1.0786889e-38
0.43503043 -0.015097818 0.61000013 1.0786889e-38
0.44474268 -0.015061378 0.61000001 1.0786889e-38
0.45331731 -0.014925028 0.60999972 1.0786889e-38
0.46527052 -0.01530696 0.60999995 1.0786889e-38
0.47483176 -0.014828864 0.60999995 1.0786889e-38
0.48497498 -0.015006258 0.61000001 1.0786889e-38
0.49534553 -0.014673416 0.60999995 1.0786889e-38
0.50540757 -0.014981518 0.6099999 1.0786889e-38
0.51470512 -0.015266213 0.6099999 1.0786889e-38
0.52294469 -0.01435741 0.60999978 1.0786889e-38
0.69795442 -0.019945286 0.6099999 1.0879084e-38
0.7054404 -0.016419461 0.60999978 1.0879084e-38
0.71427161 -0.014776195 0.60999984 1.0879084e-38
0.72449988 -0.015041729 0.60999972 1.0879084e-38
0.73487675 -0.015311127 0.60999978 1.0879084e-38
0.74540609 -0.015584473 0.60999978 1.0879084e-38
0.75490123 -0.015145699 0.60999978 1.0879084e-38
0.7639606 -0.01464555 0.60999972 1.0879084e-38
0.77517277 -0.014390206 0.60999978 1.0879084e-38
0.78489941 -0.014629769 0.60999978 1.0879084e-38
0.794761 -0.01487266 0.60999978 1.0879084e-38
0.80474794 -0.015118637 0.60999972 1.0879084e-38
0.81487572 -0.015368077 0.60999978 1.0879084e-38
0.8251971 -0.015472759 0.60998613 1.0879084e-38
0.83382696 -0.015542065 0.60999978 1.0879084e-38
0.84483421 -0.014772308 0.60999978 1.0879084e-38
0.85523158 -0.014288406 0.60999972 1.0879084e-38
0.86449373 -0.014504193 0.60999972 1.0879084e-38
0.32999977 -0.0049441019 0.60404801 0
0.33638838 -0.0049660085 0.61000007 1.0786889e-38
0.34478268 -0.0051839361 0.61000001 1.0786889e-38
0.35491505 -0.0054469821 0.61000007 1.0786889e-38
0.36444071 -0.005098436 0.61000007 1.0786889e-38
0.37533405 -0.0045423489 0.61000019 1.0786889e-38
0.38502303 -0.0047421381 0.6099422 1.0786889e-38
0.39538923 -0.0050363066 0.61000001 1.0786889e-38
0.40476418 -0.0052672024 0.61000007 1.0786889e-38
0.4152616 -0.005181524 0.61000001 1.0786889e-38
0.42529523 -0.0050222594 0.61000001 1.0786889e-38
0.43520284 -0.0049799443 0.61000007 1.0786889e-38
0.44493493 -0.0047292076 0.61000007 1.0786889e-38
0.45331734 -0.0049245027 0.60999984 1.0786889e-38
0.46527058 -0.0052029961 0.61000013 1.0786889e-38
0.47483188 -0.0046421597 0.60999984 1.0786889e-38
0.48509046 -0.0048743435 0.6099999 1.0786889e-38
0.49534553 -0.0051064445 0.60999995 1.0786889e-38
0.50540751 -0.0053341715 0.6099999 1.0786889e-38
0.51470512 -0.0055445987 0.6099999 1.0786889e-38
0.52521777 -0.0050845044 0.61000007 1.0786889e-38
0.53446192 -0.003210434 0.60999984 1.0786889e-38
0.5415104 -0.00035542436 0.6099999 1.0879084e-38
0.61445129 -0.00092678983 0.60269529 6.8083978e-39
0.71553952 -0.005370887 0.60999978 1.0879084e-38
0.72449988 -0.0055438592 0.60999972 1.0879084e-38
0.73511434 -0.005225983 0.60999972 1.0879084e-38
0.74540597 -0.0049837329 0.60999972 1.0879084e-38
0.75431931 -0.004748831 0.60969931 1.0879084e-38
0.76420796 -0.004357955 0.60999978 1.0879084e-38
0.77517271 -0.0045550256 0.60999978 1.0879084e-38
0.78489941 -0.0047298395 0.60999978 1.0879084e-38
0.79476106 -0.0049070851 0.60999978 1.0879084e-38
0.80474824 -0.0050865817 0.60999972 1.0879084e-38
0.81487572 -0.0052686045 0.60999978 1.0879084e-38
0.82513362 -0.00545297 0.60999978 1.0879084e-38
0.83404022 -0.0056130467 0.60999978 1.0879084e-38
0.84432751 -0.0055805226 0.60999978 1.0879084e-38
0.8552317 -0.0049571102 0.60999972 1.0879084e-38
0.86449379 -0.0051174108 0.60999972 1.0879084e-38
0.32999977 0.0047281357 0.60404795 0
0.33551848 0.0050587188 0.61000013 1.0786889e-38
0.34526801 0.0047817579 0.61000007 1.0786889e-38
0.3550196 0.0045355279 0.61000007 1.0786889e-38
0.36480033 0.0054645054 0.61000019 1.0786889e-38
0.37540877 0.00545569 0.60980654 1.0786889e-38
0.38496712 0.0053532096 0.61000007 1.0786889e-38
0.39493224 0.0053827083 0.61000001 1.0786889e-38
0.40476409 0.0050501116 0.61000007 1.0786889e-38
0.41507208 0.0050500827 0.61000019 1.0786889e-38
0.42529529 0.004735773 0.61000007 1.0786889e-38
0.43486658 0.0048170188 0.61000007 1.0786889e-38
0.4449347 0.0051987763 0.60999995 1.0786889e-38
0.45481393 0.0052813562 0.60999995 1.0786889e-38
0.46527058 0.0049009677 0.60999995 1.0786889e-38
0.47483176 0.0047609499 0.60999984 1.0786889e-38
0.48463202 0.0047300397 0.60999995 1.0786889e-38
0.4954685 0.0046101334 0.61000001 1.0786889e-38
0.50540757 0.0051171212 0.61000001 1.0786889e-38
0.51470518 0.0049871514 0.61000001 1.0786889e-38
0.52497339 0.005506603 0.61000001 1.0786889e-38
0.53567231 0.0055181445 0.60999984 1.0786889e-38
0.54478675 0.0061596022 0.60999972 1.0786889e-38
0.55203819 0.0089188283 0.6099999 1.0786889e-38
0.71461731 0.0053641926 0.60999972 1.0879084e-38
0.72449994 0.0049038008 0.60999972 1.0879084e-38
0.73463923 0.0052179624 0.60999972 1.0879084e-38
0.74540597 0.0056170085 0.60999978 1.0879084e-38
0.7547434 0.0055113425 0.60999978 1.0879084e-38
0.76420796 0.0054042391 0.60999978 1.0879084e-38
0.77517277 0.005280158 0.60999972 1.0879084e-38
0.78489947 0.0051700892 0.60999978 1.0879084e-38
0.794761 0.0050584907 0.60999978 1.0879084e-38
0.80474794 0.0049454742 0.60999972 1.0879084e-38
0.81487572 0.0048308675 0.60999978 1.0879084e-38
0.82513368 0.0047147842 0.60999978 1.0879084e-38
0.8340404 0.0046139951 0.60999978 1.0879084e-38
0.8445667 0.0044948729 0.60999978 1.0879084e-38
0.85523164 0.0043741865 0.60999978 1.0879084e-38
0.86449373 0.0042693741 0.60999972 1.0879084e-38
0.3299998 0.015091247 0.60404801 0
0.3350293 0.015094677 0.61000025 1.0786889e-38
0.34557128 0.015024501 0.61000019 1.0786889e-38
0.35481977 0.015068199 0.61000019 1.0786889e-38
0.36514667 0.015604774 0.61000013 1.0786889e-38
0.37533405 0.015543743 0.61000019 1.0786889e-38
0.38496727 0.015486027 0.61000013 1.0786889e-38
0.39477992 0.01542724 0.61000007 1.0786889e-38
0.40476418 0.015367426 0.61000013 1.0786889e-38
0.4149377 0.015306476 0.61000013 1.0786889e-38
0.42529532 0.015244424 0.61000007 1.0786889e-38
0.43493137 0.015132558 0.60993308 1.0786889e-38
0.44493476 0.015126763 0.61000013 1.0786889e-38
0.45501342 0.015066382 0.61000007 1.0786889e-38
0.46527073 0.01500493 0.61000007 1.0786889e-38
0.47483173 0.014947646 0.60999995 1.0786889e-38
0.48455542 0.014889394 0.61000007 1.0786889e-38
0.4952347 0.014942529 0.61000007 1.0786889e-38
0.50540751 0.015568417 0.60999984 1.0786889e-38
0.51470506 0.015518904 0.6099999 1.0786889e-38
0.5251019 0.015463536 0.60999995 1.0786889e-38
0.53567433 0.015497366 0.60973459 1.0786889e-38
0.54544342 0.015355212 0.60999984 1.0786889e-38
0.55499923 0.01570846 0.60999978 1.0786889e-38
0.56274605 0.018351568 0.6099999 1.0786889e-38
0.70651358 0.017309468 0.60999984 1.0879084e-38
0.71427155 0.015399121 0.60999978 1.0879084e-38
0.72449994 0.015351462 0.60999978 1.0879084e-38
0.73487681 0.015303107 0.60999978 1.0879084e-38
0.74540615 0.015254045 0.60999978 1.0879084e-38
0.75474346 0.015210535 0.60999978 1.0879084e-38
0.76420796 0.015166434 0.60999978 1.0879084e-38
0.77517277 0.01511534 0.60999978 1.0879084e-38
0.78489935 0.015070018 0.60999978 1.0879084e-38
0.79476094 0.015024066 0.60999978 1.0879084e-38
0.80474824 0.014977531 0.60999978 1.0879084e-38
0.81487572 0.014930338 0.60999978 1.0879084e-38
0.82513362 0.014882539 0.60999978 1.0879084e-38
0.83404028 0.014841038 0.60999978 1.0879084e-38
0.84456694 0.014791986 0.60999978 1.0879084e-38
0.85523182 0.014742293 0.60999978 1.0879084e-38
0.86449373 0.014699134 0.60999972 1.0879084e-38
0.32999977 0.025454359 0.60404801 0
0.33502927 0.025452642 0.61000019 1.0786889e-38
0.34557125 0.02548773 0.61000007 1.0786889e-38
0.3549152 0.025518831 0.61000007 1.0786889e-38
0.36514661 0.025552887 0.61000019 1.0786889e-38
0.37533394 0.025586786 0.61000013 1.0786889e-38
0.38496703 0.025618851 0.61000013 1.0786889e-38
0.39465681 0.025058469 0.61000001 1.0786889e-38
0.40476406 0.024947785 0.60999995 1.0786889e-38
0.41493779 0.024974877 0.61000013 1.0786889e-38
0.42529535 0.025002457 0.61000001 1.0786889e-38
0.43503043 0.025028374 0.60999995 1.0786889e-38
0.44493484 0.025054749 0.61000001 1.0786889e-38
0.45501354 0.025081579 0.60999995 1.0786889e-38
0.46527064 0.025108896 0.61000001 1.0786889e-38
0.47483173 0.025134353 0.6099999 1.0786889e-38
0.48455551 0.025160242 0.60999995 1.0786889e-38
0.49534547 0.025188975 0.60999995 1.0786889e-38
0.50540751 0.025215765 0.6099999 1.0786889e-38
0.51470506 0.02524052 0.6099999 1.0786889e-38
0.5251019 0.025268201 0.60999995 1.0786889e-38
0.53567231 0.025296343 0.60999984 1.0786889e-38
0.54544336 0.025322361 0.60999984 1.0786889e-38
0.55537021 0.025348792 0.60999984 1.0786889e-38
0.5653156 0.025521247 0.60999984 1.0786889e-38
0.57317996 0.027755558 0.6099999 1.0786889e-38
0.69640791 0.026421558 0.60999984 1.0879084e-38
0.70418906 0.024808776 0.60999978 1.0879084e-38
0.71427166 0.024828909 0.60999978 1.0879084e-38
0.72449994 0.024849335 0.60999972 1.0879084e-38
0.73487681 0.024870059 0.60999978 1.0879084e-38
0.74540591 0.024891082 0.60999978 1.0879084e-38
0.7547434 0.024909729 0.60999978 1.0879084e-38
0.76424861 0.024753591 0.60959154 1.0879084e-38
0.77517277 0.024950525 0.60999972 1.0879084e-38
0.78489947 0.024969947 0.60999978 1.0879084e-38
0.79476112 0.024989642 0.60999978 1.0879084e-38
0.80474818 0.025009584 0.60999972 1.0879084e-38
0.81487578 0.025029808 0.60999978 1.0879084e-38
0.82513368 0.025050296 0.60999978 1.0879084e-38
0.8340404 0.025068076 0.60999978 1.0879084e-38
0.84456694 0.0250891 0.60999978 1.0879084e-38
0.85503531 0.025158521 0.60959041 1.0879084e-38
0.86449373 0.025128895 0.60999972 1.0879084e-38
0.32999977 0.035126597 0.60404795 0
0.3350293 0.035120077 0.61000019 1.0786889e-38
0.34558615 0.035399698 0.60981023 1.0510302e-38
0.35490289 0.035435166 0.60991687 1.0786889e-38
0.36514664 0.035500992 0.61000013 1.0786889e-38
0.37524199 0.035538636 0.61000013 1.0786889e-38
0.38496718 0.035027899 0.61000001 1.0786889e-38
0.39489105 0.034522858 0.61000007 1.0786889e-38
0.40476412 0.034528147 0.61000007 1.0786889e-38
0.41493782 0.034643274 0.61000013 1.0786889e-38
0.42529538 0.034760483 0.61000013 1.0786889e-38
0.43503034 0.034870651 0.61000013 1.0786889e-38
0.4449349 0.034982733 0.61000013 1.0786889e-38
0.45501345 0.035096787 0.61000013 1.0786889e-38
0.46527064 0.035212856 0.61000007 1.0786889e-38
0.47466746 0.03487777 0.6099999 1.0786889e-38
0.48455557 0.034641016 0.60999995 1.0786889e-38
0.49534547 0.034755949 0.60999995 1.0786889e-38
0.50540751 0.034863111 0.60999984 1.0786889e-38
0.51470512 0.034962136 0.6099999 1.0786889e-38
0.5251019 0.035072874 0.60999995 1.0786889e-38
0.53567231 0.035185445 0.6099999 1.0786889e-38
0.54544348 0.035289511 0.60999984 1.0786889e-38
0.55537021 0.035395246 0.60999984 1.0786889e-38
0.56545609 0.035502657 0.60999984 1.0786889e-38
0.57556242 0.035757452 0.60999984 1.0786889e-38
0.58323479 0.037831828 0.60999984 1.0786889e-38
0.68566471 0.037705265 0.60999984 1.0786889e-38
0.69424886 0.035015076 0.60999972 1.0786889e-38
0.704189 0.035107713 0.60999972 1.0879084e-38
0.71427161 0.035201672 0.60999972 1.0879084e-38
0.72431612 0.034616251 0.60999978 1.0879084e-38
0.73487681 0.034437008 0.60999978 1.0879084e-38
0.74540615 0.034528129 0.60999978 1.0879084e-38
0.75474352 0.034608919 0.60999978 1.0879084e-38
0.76420784 0.03469082 0.60999978 1.0879084e-38
0.77517277 0.03478571 0.60999972 1.0879084e-38
0.78489947 0.034869876 0.60999978 1.0879084e-38
0.794761 0.034955218 0.60999972 1.0879084e-38
0.80474818 0.035041641 0.60999978 1.0879084e-38
0.8148756 0.035129279 0.60999978 1.0879084e-38
0.82513362 0.035218053 0.60999978 1.0879084e-38
0.83404046 0.035295125 0.60999978 1.0879084e-38
0.84456682 0.035386212 0.60999978 1.0879084e-38
0.8552317 0.035478506 0.60999978 1.0879084e-38
0.86449373 0.035558652 0.60999972 1.0879084e-38
0.32995996 0.044928722 0.60417849 4.6097815e-40
0.33502942 0.044787508 0.61000019 1.0786889e-38
0.34533891 0.045013994 0.61000013 1.0786889e-38
0.35491526 0.045224342 0.61000007 1.0786889e-38
0.36514655 0.0454491 0.61000013 1.0786889e-38
0.37524045 0.04527273 0.61000013 1.0786889e-38
0.38496709 0.044436943 0.61000007 1.0786889e-38
0.39477989 0.044639438 0.61000007 1.0786889e-38
0.40476412 0.044845458 0.61000007 1.0786889e-38
0.41493794 0.045055401 0.61000013 1.0786889e-38
0.42529529 0.045269139 0.61000007 1.0786889e-38
0.43484154 0.04511594 0.61000001 1.0786889e-38
0.44493473 0.044910718 0.60999995 1.0786889e-38
0.45501348 0.045111991 0.60999995 1.0786889e-38
0.46527064 0.045316812 0.60999995 1.0786889e-38
0.47499102 0.045011546 0.6099999 1.0786889e-38
0.48455557 0.044911873 0.61000007 1.0786889e-38
0.4952347 0.045000911 0.61000007 1.0786889e-38
0.50540769 0.044510458 0.60999984 1.0786889e-38
0.514705 0.044683751 0.6099999 1.0786889e-38
0.5251019 0.044877537 0.6099999 1.0786889e-38
0.53567231 0.045074545 0.60999984 1.0786889e-38
0.54544342 0.045256671 0.60999984 1.0786889e-38
0.55537015 0.045441691 0.60999984 1.0786889e-38
0.56545609 0.045629673 0.60999984 1.0786889e-38
0.57554644 0.045162801 0.60999972 1.0786889e-38
0.58525997 0.044673488 0.60999972 1.0786889e-38
0.5940702 0.045876656 0.60999972 1.0786889e-38
0.60432065 0.047699414 0.60999984 1.0786889e-38
0.61510891 0.049186043 0.60999978 1.0786889e-38
0.62506723 0.049391538 0.6099999 1.0786889e-38
0.63517153 0.049600042 0.6099999 1.0786889e-38
0.6442858 0.049788117 0.6099999 1.0786889e-38
0.6511994 0.049930785 0.60999984 1.0786889e-38
0.66762006 0.048445784 0.60999984 1.0786889e-38
0.67564106 0.045978069 0.60999978 1.0786889e-38
0.68444824 0.045078132 0.60999978 1.0786889e-38
0.6942488 0.045241233 0.60999978 1.0786889e-38
0.70418906 0.045406651 0.60999978 1.0786889e-38
0.71427161 0.045574438 0.60999978 1.0786889e-38
0.72466767 0.045003466 0.60999972 1.0786889e-38
0.73487693 0.044960648 0.60999972 1.0786889e-38
0.74523288 0.044916023 0.60999972 1.0786889e-38
0.75474346 0.044308115 0.60999978 1.0786889e-38
0.76420802 0.044453014 0.60999978 1.0786889e-38
0.77517283 0.044620894 0.60999978 1.0786889e-38
0.78489947 0.044769809 0.60999978 1.0786889e-38
0.79476106 0.044920795 0.60999972 1.0786889e-38
0.80474812 0.045073695 0.60999978 1.0879084e-38
0.81487578 0.04522875 0.60999978 1.0879084e-38
0.82513362 0.045385804 0.60999978 1.0879084e-38
0.83404046 0.045522168 0.60999978 1.0879084e-38
0.84456682 0.045683332 0.60999978 1.0879084e-38
0.8550123 0.045546439 0.60999978 1.0879084e-38
0.86449379 0.044945437 0.60999972 1.0879084e-38
0.3299998 0.054946732 0.60419291 0
0.33484772 0.054816592 0.61000025 1.0786889e-38
0.34533885 0.054777514 0.61000013 1.0786889e-38
0.35491523 0.055077106 0.61000007 1.0786889e-38
0.36514655 0.055397198 0.61000013 1.0786889e-38
0.37533405 0.054996863 0.61000013 1.0786889e-38
0.38496703 0.054569766 0.61000007 1.0786889e-38
0.39477992 0.05486371 0.61000007 1.0786889e-38
0.40476409 0.055162776 0.61000007 1.0786889e-38
0.41476953 0.055271931 0.61000019 1.0786889e-38
0.42529532 0.055027172 0.60999995 1.0786889e-38
0.43521929 0.05490927 0.61000001 1.0786889e-38
0.44493479 0.05483871 0.61000007 1.0786889e-38
0.45501333 0.055127189 0.61000007 1.0786889e-38
0.46508929 0.054923993 0.61000007 1.0786889e-38
0.47483176 0.054910861 0.60999984 1.0786889e-38
0.48455557 0.055182729 0.60999995 1.0786889e-38
0.49546835 0.055336416 0.61000001 1.0786889e-38
0.50540763 0.054961763 0.6099999 1.0786889e-38
0.51458442 0.054584529 0.6099999 1.0786889e-38
0.52510184 0.054682203 0.6099999 1.0786889e-38
0.53567237 0.054963648 0.60999984 1.0786889e-38
0.54544342 0.055223826 0.60999984 1.0786889e-38
0.55537009 0.055488147 0.60999984 1.0786889e-38
0.56523806 0.055448752 0.60999978 1.0786889e-38
0.57584745 0.054477908 0.60999978 1.0786889e-38
0.58506936 0.054564971 0.60999972 1.0786889e-38
0.59457707 0.054805465 0.60999984 1.0786889e-38
0.60530442 0.055076811 0.60999978 1.0786889e-38
0.61505604 0.055457808 0.60963869 1.0786889e-38
0.6248284 0.05525431 0.60999978 1.0786889e-38
0.63517147 0.054941993 0.60999972 1.0786889e-38
0.64428574 0.055166464 0.60999978 1.0786889e-38
0.65510839 0.054804422 0.609788 1.0786889e-38
0.66525406 0.054772556 0.60999972 1.0786889e-38
0.67478412 0.055000931 0.60999972 1.0786889e-38
0.68444824 0.055232525 0.60999972 1.0786889e-38
0.69424903 0.054537732 0.60999972 1.0786889e-38
0.70418906 0.054769326 0.60999972 1.0786889e-38
0.71427166 0.055004232 0.60999972 1.0786889e-38
0.72457308 0.055467095 0.60976523 1.0786889e-38
0.73487687 0.055484295 0.60999972 1.0786889e-38
0.74559551 0.055457916 0.60999972 1.0786889e-38
0.7547434 0.054977223 0.60999972 1.0786889e-38
0.76401383 0.054489095 0.60999972 1.0786889e-38
0.77517277 0.054456085 0.60999978 1.0786889e-38
0.78489935 0.054669738 0.60999978 1.0786889e-38
0.79476106 0.054886371 0.60999978 1.0786889e-38
0.8047483 0.055105757 0.60999972 1.0786889e-38
0.8148756 0.05532822 0.60999978 1.0786889e-38
0.82513386 0.055553555 0.60999978 1.0786889e-38
0.83404046 0.055749211 0.60999978 1.0786889e-38
0.84430015 0.055247027 0.60999972 1.0786889e-38
0.85546792 0.054783378 0.60999972 1.0786889e-38
0.86449373 0.054332223 0.60999972 1.0786889e-38
0.3299998 0.065279 0.60389644 0
0.3352108 0.065141819 0.61000025 1.0786889e-38
0.34515387 0.064785846 0.60999823 1.0786889e-38
0.35491526 0.06492985 0.61000007 1.0786889e-38
0.36514655 0.06534531 0.61000013 1.0786889e-38
0.37533402 0.064937457 0.61000013 1.0786889e-38
0.38496709 0.064702593 0.61000007 1.0786889e-38
0.39477992 0.065087974 0.61000007 1.0786889e-38
0.40460891 0.065252282 0.61000001 1.0786889e-38
0.41511747 0.064905398 0.61000007 1.0786889e-38
0.42523086 0.064906105 0.60983354 1.0786889e-38
0.43503034 0.065154575 0.61000007 1.0786889e-38
0.44482252 0.064906463 0.61000001 1.0786889e-38
0.45501354 0.065142386 0.60999995 1.0786889e-38
0.46544299 0.064986303 0.61000001 1.0786889e-38
0.47483173 0.065097563 0.60999995 1.0786889e-38
0.48455557 0.0646635 0.60999995 1.0786889e-38
0.49534547 0.065051384 0.60999995 1.0786889e-38
0.50540763 0.06541305 0.60999984 1.0786889e-38
0.51481521 0.065083519 0.61000001 1.0786889e-38
0.5251019 0.064486854 0.60999995 1.0786889e-38
0.53567237 0.064852744 0.60999984 1.0786889e-38
0.54544348 0.065190971 0.60999984 1.0786889e-38
0.55537021 0.065534584 0.60999984 1.0786889e-38
0.56552905 0.064859971 0.60999978 1.0786889e-38
0.57570523 0.064536974 0.60999984 1.0786889e-38
0.58506936 0.064848654 0.60999972 1.0786889e-38
0.59457701 0.065165088 0.60999984 1.0786889e-38
0.60515493 0.065366596 0.60999978 1.0786889e-38
0.61510903 0.064971492 0.60999972 1.0786889e-38
0.62531507 0.064910688 0.60999972 1.0786889e-38
0.63517147 0.064735562 0.60999972 1.0786889e-38
0.64428574 0.065026775 0.60999972 1.0786889e-38
0.65453094 0.065197848 0.60999984 1.0786889e-38
0.665254 0.064786397 0.60999972 1.0786889e-38
0.67478424 0.065084562 0.60999978 1.0786889e-38
0.6844483 0.065386906 0.60999972 1.0786889e-38
0.69424891 0.064763889 0.60999972 1.0786889e-38
0.70418912 0.065068267 0.60999972 1.0786889e-38
0.71409065 0.064697295 0.60999978 1.0786889e-38
0.72449988 0.064740404 0.60999978 1.0786889e-38
0.73487681 0.065051243 0.60999972 1.0786889e-38
0.74540603 0.065366633 0.60999978 1.0786889e-38
0.75496179 0.065434478 0.60962677 1.0786889e-38
0.76438516 0.065170467 0.60999972 1.0786889e-38
0.77517283 0.064291261 0.60999972 1.0786889e-38
0.78489941 0.064569667 0.60999978 1.0786889e-38
0.79476106 0.064851947 0.60999972 1.0786889e-38
0.8047483 0.065137811 0.60999972 1.0786889e-38
0.81498146 0.065255433 0.60950011 1.0786889e-38
0.82513404 0.065721318 0.60999972 1.0786889e-38
0.83381087 0.065339714 0.60999978 1.0786889e-38
0.84480548 0.064440794 0.60999972 1.0786889e-38
0.85548979 0.064291917 0.60980976 1.0786889e-38
0.86449373 0.064761981 0.60999972 1.0786889e-38
0.32999977 0.075197294 0.60404795 0
0.33502918 0.075170897 0.61000019 1.0786889e-38
0.34533846 0.075000651 0.61000019 1.0786889e-38
0.35502481 0.074976057 0.61000007 1.0786889e-38
0.36514661 0.075293414 0.61000013 1.0786889e-38
0.37536469 0.07487537 0.61000019 1.0786889e-38
0.38496718 0.07483542 0.61000007 1.0786889e-38
0.3947795 0.075478204 0.61000007 1.0786889e-38
0.40492746 0.074796014 0.61000001 1.0786889e-38
0.41493776 0.074804343 0.61000013 1.0786889e-38
0.42519692 0.075178973 0.61000007 1.0786889e-38
0.4350304 0.074996859 0.60999995 1.0786889e-38
0.44503617 0.074810691 0.61000007 1.0786889e-38
0.45501336 0.075157583 0.61000007 1.0786889e-38
0.46527058 0.074851483 0.60999995 1.0786889e-38
0.47483179 0.075284265 0.60999984 1.0786889e-38
0.48455542 0.074934348 0.61000007 1.0786889e-38
0.49526054 0.074732199 0.60999882 1.0786889e-38
0.50540769 0.075060405 0.60999978 1.0786889e-38
0.51470512 0.075468875 0.6099999 1.0786889e-38
0.52488208 0.074721098 0.61000001 1.0786889e-38
0.53567237 0.074741848 0.60999984 1.0786889e-38
0.54544348 0.075158119 0.60999984 1.0786889e-38
0.55537009 0.075581037 0.60999984 1.0786889e-38
0.56559616 0.074473694 0.60999984 1.0786889e-38
0.57570517 0.074745864 0.60999978 1.0786889e-38
0.58506942 0.07513234 0.60999972 1.0786889e-38
0.59443009 0.075369336 0.60999984 1.0786889e-38
0.60547107 0.074902244 0.60999972 1.0786889e-38
0.61510897 0.074618153 0.60999972 1.0786889e-38
0.62518448 0.074947551 0.60995167 1.0786889e-38
0.63502371 0.075219512 0.60999972 1.0786889e-38
0.6442858 0.074887082 0.60999978 1.0786889e-38
0.65487134 0.075093649 0.60999972 1.0786889e-38
0.66525406 0.074800238 0.60999972 1.0786889e-38
0.67478418 0.075168185 0.60999972 1.0786889e-38
0.68444824 0.074618176 0.60999978 1.0786889e-38
0.69424897 0.074990049 0.60999978 1.0786889e-38
0.704189 0.075367197 0.60999972 1.0786889e-38
0.71443701 0.0750174 0.60999972 1.0786889e-38
0.7243318 0.074974768 0.60999972 1.0786889e-38
0.73487687 0.074618183 0.60999972 1.0786889e-38
0.74540603 0.075003676 0.60999978 1.0786889e-38
0.75474352 0.075345539 0.60999972 1.0786889e-38
0.76420796 0.075692043 0.60999978 1.0786889e-38
0.77492166 0.074653044 0.60999972 1.0786889e-38
0.78489953 0.074469596 0.60999978 1.0786889e-38
0.79476106 0.074817516 0.60999972 1.0786889e-38
0.8047483 0.075169854 0.60999972 1.0786889e-38
0.8148756 0.075527169 0.60999978 1.0786889e-38
0.82492286 0.075590558 0.60999972 1.0786889e-38
0.83425349 0.074456759 0.60999978 1.0786889e-38
0.84456694 0.074515261 0.60999978 1.0786889e-38
0.8552317 0.074877314 0.60999978 1.0786889e-38
0.86449373 0.075191744 0.60999972 1.0786889e-38
0.32999977 0.084869534 0.60404807 0
0.33502933 0.084838331 0.61000019 1.0786889e-38
0.34547529 0.085251585 0.61000013 1.0786889e-38
0.35515001 0.08464928 0.61000013 1.0786889e-38
0.36514649 0.085241519 0.61000013 1.0786889e-38
0.37533399 0.084818862 0.61000013 1.0786889e-38
0.38496709 0.084968224 0.61000007 1.0786889e-38
0.39457986 0.08523836 0.61000013 1.0786889e-38
0.40476412 0.084640823 0.61000007 1.0786889e-38
0.4149377 0.085216463 0.61000013 1.0786889e-38
0.42540428 0.084915459 0.60999995 1.0786889e-38
0.43503034 0.084839121 0.61000007 1.0786889e-38
0.44474283 0.085022502 0.61000001 1.0786889e-38
0.45501348 0.085172795 0.60999995 1.0786889e-38
0.46527067 0.084955439 0.61000001 1.0786889e-38
0.47471893 0.084857754 0.6099999 1.0786889e-38
0.48455566 0.085205205 0.60999995 1.0786889e-38
0.49534506 0.084981635 0.61000001 1.0786889e-38
0.50540757 0.084707752 0.60999984 1.0786889e-38
0.51470518 0.085190497 0.60999984 1.0786889e-38
0.52520198 0.085174985 0.61000001 1.0786889e-38
0.53567231 0.084630944 0.60999984 1.0786889e-38
0.54544359 0.085125282 0.60999984 1.0786889e-38
0.55523187 0.085475683 0.60999984 1.0786889e-38
0.56545609 0.084449887 0.60999984 1.0786889e-38
0.57570517 0.084954746 0.60999984 1.0786889e-38
0.58506936 0.085416026 0.60999972 1.0786889e-38
0.59457755 0.085019842 0.60999978 1.0786889e-38
0.60530436 0.084671907 0.60999978 1.0786889e-38
0.61528575 0.084997952 0.60967189 1.0786889e-38
0.62481982 0.0851155 0.60999978 1.0786889e-38
0.6353333 0.084965661 0.60999978 1.0786889e-38
0.64428574 0.084747396 0.60999972 1.0786889e-38
0.65469182 0.085232273 0.60999984 1.0786889e-38
0.665254 0.084814087 0.60999972 1.0786889e-38
0.67478418 0.085251823 0.60999978 1.0786889e-38
0.68444824 0.084772579 0.60999972 1.0786889e-38
0.69408792 0.085006274 0.60999972 1.0786889e-38
0.70418906 0.084729873 0.60999972 1.0786889e-38
0.71427172 0.085179552 0.60999972 1.0786889e-38
0.72468412 0.085371837 0.60999978 1.0786889e-38
0.73470628 0.084925786 0.60999972 1.0786889e-38
0.74560875 0.084651098 0.60969687 1.0786889e-38
0.75474352 0.085044719 0.60999972 1.0786889e-38
0.76420796 0.085454233 0.60999978 1.0786889e-38
0.77523834 0.085180566 0.60999972 1.0786889e-38
0.78489929 0.084369525 0.60999978 1.0786889e-38
0.79476106 0.084783092 0.60999978 1.0786889e-38
0.8047483 0.085201904 0.60999972 1.0786889e-38
0.81487572 0.085626632 0.60999978 1.0786889e-38
0.82513416 0.085038662 0.60999972 1.0786889e-38
0.83404046 0.084384926 0.60999978 1.0786889e-38
0.84456694 0.084812373 0.60999972 1.0786889e-38
0.85523182 0.085245423 0.60999972 1.0786889e-38
0.86449373 0.085621506 0.60999972 1.0786889e-38
0.31277379 0.090193227 0.60982472 7.7444329e-39
0.3299998 0.094782382 0.60419935 0
0.3348479 0.094860397 0.61000025 1.0786889e-38
0.34533894 0.095226347 0.61000013 1.0786889e-38
0.35501158 0.094714835 0.61000013 1.0786889e-38
0.36514664 0.095189638 0.61000013 1.0786889e-38
0.37533394 0.094861917 0.61000013 1.0786889e-38
0.38496709 0.095101044 0.61000007 1.0786889e-38
0.39481121 0.094922118 0.61000013 1.0786889e-38
0.40476418 0.094958134 0.61000007 1.0786889e-38
0.4146663 0.095307305 0.60978496 1.0786889e-38
0.42529547 0.094809912 0.61000007 1.0786889e-38
0.43484163 0.095076114 0.61000001 1.0786889e-38
0.44512695 0.094914496 0.61000001 1.0786889e-38
0.45490992 0.095068306 0.61000007 1.0786889e-38
0.46527067 0.095059425 0.60999995 1.0786889e-38
0.47493482 0.09501832 0.60999995 1.0786889e-38
0.48443553 0.09482754 0.61000001 1.0786889e-38
0.4954685 0.0952029 0.61000001 1.0786889e-38
0.50523973 0.094855875 0.60999984 1.0786889e-38
0.51470524 0.094912119 0.60999984 1.0786889e-38
0.525231 0.095387533 0.61000001 1.0786889e-38
0.53567237 0.094520047 0.60999984 1.0786889e-38
0.54544353 0.095092431 0.60999984 1.0786889e-38
0.55537021 0.095337987 0.60999984 1.0786889e-38
0.56545609 0.094576903 0.60999984 1.0786889e-38
0.57570529 0.095163628 0.60999978 1.0786889e-38
0.5848788 0.095298618 0.60999972 1.0786889e-38
0.59472352 0.094673946 0.60999984 1.0786889e-38
0.60530436 0.095117211 0.60999978 1.0786889e-38
0.61490929 0.095254987 0.60999972 1.0786889e-38
0.62530601 0.094782874 0.60999978 1.0786889e-38
0.63517147 0.095006607 0.60999972 1.0786889e-38
0.64407724 0.095084555 0.60999972 1.0786889e-38
0.65469187 0.095168784 0.60999972 1.0786889e-38
0.66525406 0.094827928 0.60999972 1.0786889e-38
0.67462748 0.095127292 0.60999972 1.0786889e-38
0.6844483 0.094926968 0.60999978 1.0786889e-38
0.69442528 0.095185302 0.60999972 1.0786889e-38
0.704189 0.09502881 0.60999972 1.0786889e-38
0.71427166 0.094609335 0.60999972 1.0786889e-38
0.72449994 0.095133588 0.60999972 1.0786889e-38
0.73506373 0.095400967 0.60999978 1.0786889e-38
0.74516505 0.094790407 0.60999972 1.0786889e-38
0.75474358 0.09474393 0.60999972 1.0786889e-38
0.7640686 0.095370516 0.6097967 1.0786889e-38
0.7753703 0.095491923 0.60999978 1.0786889e-38
0.78489941 0.094269462 0.60999978 1.0786889e-38
0.79476106 0.094748661 0.60999978 1.0786889e-38
0.80474836 0.095233984 0.60999972 1.0786889e-38
0.8148756 0.09572611 0.60999978 1.0786889e-38
0.82524085 0.094623201 0.60994589 1.0786889e-38
0.83404052 0.094611973 0.60999978 1.0786889e-38
0.84456682 0.095109478 0.60999972 1.0786889e-38
0.85523164 0.095613509 0.60999978 1.0786889e-38
0.86449379 0.095008291 0.60999972 1.0786889e-38
0.3299998 0.10490353 0.60404837 0
0.33513305 0.10511653 0.61000019 1.0786889e-38
0.34533885 0.10498985 0.61000013 1.0786889e-38
0.35512215 0.10496286 0.61000013 1.0786889e-38
0.36514655 0.10513776 0.61000013 1.0786889e-38
0.37533405 0.10490497 0.61000013 1.0786889e-38
0.38496709 0.10523385 0.61000007 1.0786889e-38
0.39484203 0.10483227 0.61000013 1.0786889e-38
0.4046694 0.10516011 0.61000007 1.0786889e-38
0.41514373 0.10485869 0.61000013 1.0786889e-38
0.42513433 0.10508084 0.61000001 1.0786889e-38
0.43521926 0.10488605 0.61000001 1.0786889e-38
0.44476813 0.10500046 0.61000001 1.0786889e-38
0.45512828 0.10506517 0.61000001 1.0786889e-38
0.46509799 0.10491725 0.61000001 1.0786889e-38
0.47483176 0.1050608 0.60999984 1.0786889e-38
0.48455539 0.10495593 0.61000001 1.0786889e-38
0.49534565 0.10491376 0.60999995 1.0786889e-38
0.50558072 0.10526977 0.60999984 1.0786889e-38
0.51470524 0.10463376 0.60999984 1.0786889e-38
0.5251019 0.10533963 0.60999995 1.0786889e-38
0.53554749 0.10458636 0.60999984 1.0786889e-38
0.54544353 0.10505961 0.60999978 1.0786889e-38
0.55536896 0.1050905 0.60983783 1.0786889e-38
0.56545615 0.10470392 0.60999978 1.0786889e-38
0.57570523 0.10537254 0.60999984 1.0786889e-38
0.58525997 0.1046705 0.60999972 1.0786889e-38
0.59457695 0.10487702 0.60999984 1.0786889e-38
0.6050725 0.10523606 0.60999972 1.0786889e-38
0.61530864 0.10484558 0.60999972 1.0786889e-38
0.62506729 0.10505828 0.60999978 1.0786889e-38
0.63501006 0.10504393 0.60999972 1.0786889e-38
0.64449424 0.10488754 0.60999972 1.0786889e-38
0.65469193 0.10510529 0.60999978 1.0786889e-38
0.665254 0.10484177 0.60999972 1.0786889e-38
0.67495573 0.10516687 0.60999978 1.0786889e-38
0.68444824 0.10508134 0.60999972 1.0786889e-38
0.69424897 0.10473885 0.60999972 1.0786889e-38
0.70418906 0.10532776 0.60999978 1.0786889e-38
0.71427172 0.10498212 0.60999972 1.0786889e-38
0.72449994 0.10463146 0.60999978 1.0786889e-38
0.73487687 0.10523244 0.60999978 1.0786889e-38
0.74564701 0.10532954 0.60999972 1.0786889e-38
0.75474346 0.10444311 0.60999972 1.0786889e-38
0.76420796 0.10497862 0.60999972 1.0786889e-38
0.77515459 0.10551349 0.60995299 1.0786889e-38
0.78472477 0.10453027 0.60999978 1.0786889e-38
0.79476106 0.10471424 0.60999972 1.0786889e-38
0.8047483 0.10526605 0.60999972 1.0786889e-38
0.81464553 0.10559963 0.60999978 1.0786889e-38
0.82513386 0.10435878 0.60999972 1.0786889e-38
0.83404046 0.10483901 0.60999978 1.0786889e-38
0.84456694 0.1054066 0.60999978 1.0786889e-38
0.85499573 0.10533024 0.60999972 1.0786889e-38
0.86449373 0.10439507 0.60999972 1.0786889e-38
0.3299998 0.11502869 0.6038965 0
0.33511302 0.11513186 0.61000019 1.0694693e-38
0.34525576 0.11485717 0.61000013 1.0786889e-38
0.35517827 0.11511616 0.61000013 1.0786889e-38
0.36514661 0.11508583 0.61000013 1.0786889e-38
0.37539509 0.11484256 0.61000013 1.0786889e-38
0.38487583 0.11525258 0.61000007 1.0786889e-38
0.39487353 0.11484753 0.61000013 1.0786889e-38
0.40468678 0.11510599 0.61000001 1.0786889e-38
0.41493776 0.1149654 0.61000013 1.0786889e-38
0.42535761 0.11494577 0.61000001 1.0786889e-38
0.43493044 0.11500367 0.61000007 1.0786889e-38
0.44511017 0.11490238 0.61000007 1.0786889e-38
0.45484382 0.11497295 0.61000001 1.0786889e-38
0.4654524 0.11499469 0.61000001 1.0786889e-38
0.47467241 0.1149493 0.6099999 1.0786889e-38
0.48467642 0.11508714 0.61000001 1.0786889e-38
0.4951362 0.11489288 0.61000001 1.0786889e-38
0.50540769 0.11525767 0.60999978 1.0786889e-38
0.51452971 0.11469565 0.6099999 1.0786889e-38
0.5251019 0.1151443 0.60999995 1.0786889e-38
0.53560972 0.1147974 0.60999984 1.0786889e-38
0.54544348 0.11502675 0.60999978 1.0786889e-38
0.55537015 0.11509547 0.60999984 1.0786889e-38
0.56545609 0.11483095 0.60999978 1.0786889e-38
0.57556242 0.11542378 0.60999978 1.0786889e-38
0.58506936 0.11455312 0.60999972 1.0786889e-38
0.59457701 0.11523665 0.60999978 1.0786889e-38
0.60554492 0.11476671 0.60999972 1.0786889e-38
0.61510891 0.11495876 0.60999972 1.0786889e-38
0.62481982 0.11515225 0.60999972 1.0786889e-38
0.63531893 0.11479702 0.60999972 1.0786889e-38
0.64428574 0.11522471 0.60999972 1.0786889e-38
0.65469193 0.1150418 0.60999972 1.0786889e-38
0.66525406 0.11485561 0.60999972 1.0786889e-38
0.67461306 0.11483574 0.60999972 1.0786889e-38
0.6844483 0.11523572 0.60999972 1.0786889e-38
0.69424897 0.11496501 0.60999972 1.0786889e-38
0.70418906 0.11469041 0.60999978 1.0786889e-38
0.71427166 0.11535487 0.60999972 1.0786889e-38
0.7243318 0.11486112 0.60999972 1.0786889e-38
0.73487687 0.1147994 0.60999972 1.0786889e-38
0.74540615 0.11547923 0.60999978 1.0786889e-38
0.75458533 0.11481632 0.60999972 1.0786889e-38
0.76420796 0.11474081 0.60999972 1.0786889e-38
0.77517283 0.11543421 0.60999972 1.0786889e-38
0.78489947 0.11472809 0.60999972 1.0786889e-38
0.79476106 0.11467983 0.60999978 1.0786889e-38
0.804748 0.11529808 0.60999972 1.0786889e-38
0.81479925 0.11517442 0.60999978 1.0786889e-38
0.82513404 0.11452654 0.60999972 1.0786889e-38
0.83404052 0.11506607 0.60999978 1.0786889e-38
0.84432763 0.1154718 0.60999972 1.0786889e-38
0.85545069 0.11458475 0.60999972 1.0786889e-38
0.86449373 0.11482485 0.60999972 1.0786889e-38
0.32999977 0.12494022 0.60404801 0
0.33494595 0.12497734 0.61000019 1.0694693e-38
0.3452571 0.12491792 0.61000013 1.0694693e-38
0.35520661 0.12517168 0.61000013 1.0694693e-38
0.36514655 0.12503396 0.61000013 1.0786889e-38
0.37533394 0.12478667 0.61000013 1.0786889e-38
0.38491243 0.12514019 0.61000007 1.0786889e-38
0.39477855 0.12497285 0.61000013 1.0786889e-38
0.4048419 0.12492118 0.61000001 1.0786889e-38
0.41476956 0.12517139 0.61000013 1.0786889e-38
0.42539307 0.124953 0.61000007 1.0786889e-38
0.43503088 0.12496436 0.60999995 1.0786889e-38
0.44483316 0.12497701 0.61000007 1.0786889e-38
0.45519206 0.12496488 0.61000001 1.0786889e-38
0.46507174 0.1249942 0.61000001 1.0786889e-38
0.47499624 0.12510505 0.6099999 1.0786889e-38
0.48436832 0.12498245 0.61000001 1.0786889e-38
0.49544084 0.12510355 0.61000001 1.0786889e-38
0.50540769 0.12490504 0.60999978 1.0786889e-38
0.51476347 0.12504278 0.6099999 1.0786889e-38
0.52510184 0.12494898 0.6099999 1.0786889e-38
0.53567213 0.12500995 0.60999984 1.0786889e-38
0.54544365 0.12499388 0.60999978 1.0786889e-38
0.55537027 0.12514192 0.60999984 1.0786889e-38
0.56545615 0.12495796 0.60999978 1.0786889e-38
0.57563168 0.12511444 0.60999978 1.0786889e-38
0.58506936 0.1248368 0.60999972 1.0786889e-38
0.59434897 0.12526898 0.60999972 1.0786889e-38
0.60530436 0.1247123 0.60999984 1.0786889e-38
0.61496568 0.12528002 0.60999972 1.0786889e-38
0.62530601 0.12483065 0.60999972 1.0786889e-38
0.63502371 0.12507221 0.60999972 1.0786889e-38
0.64428568 0.125085 0.60999978 1.0786889e-38
0.65469187 0.1249783 0.60999978 1.0786889e-38
0.66525406 0.12486948 0.60999972 1.0786889e-38
0.67494047 0.12488005 0.60999972 1.0786889e-38
0.68422705 0.1249533 0.60999972 1.0786889e-38
0.69424903 0.12519115 0.60999972 1.0786889e-38
0.70418912 0.12498934 0.60999972 1.0786889e-38
0.71427166 0.12478467 0.60999972 1.0786889e-38
0.72468412 0.12526806 0.60999972 1.0786889e-38
0.73469043 0.12462565 0.60999972 1.0786889e-38
0.74540615 0.12511627 0.60999972 1.0786889e-38
0.75491142 0.12542893 0.60999972 1.0786889e-38
0.76420796 0.12450302 0.60999972 1.0786889e-38
0.77517289 0.1252694 0.60999972 1.0786889e-38
0.78489918 0.12495806 0.60999978 1.0786889e-38
0.79476106 0.1246454 0.60999972 1.0786889e-38
0.804748 0.12533014 0.60999972 1.0786889e-38
0.8148756 0.12501265 0.60999972 1.0786889e-38
0.82513404 0.12469432 0.60999972 1.0786889e-38
0.83404046 0.12529311 0.60999972 1.0786889e-38
0.84456766 0.12496948 0.60999972 1.0786889e-38
0.85523182 0.12464421 0.60999972 1.0786889e-38
0.86449373 0.1252546 0.60999972 1.0786889e-38
0.3299998 0.13484766 0.60419929 0
0.33493537 0.13490228 0.61000019 1.0694693e-38
0.34533882 0.13497625 0.61000013 1.0694693e-38
0.35514995 0.13512994 0.61000013 1.0694693e-38
0.36514652 0.13498206 0.61000013 1.0694693e-38
0.37533399 0.1348297 0.61000013 1.0786889e-38
0.384949 0.13502881 0.61000007 1.0786889e-38
0.39468303 0.13509563 0.61000013 1.0786889e-38
0.40485853 0.13487054 0.61000007 1.0786889e-38
0.4149383 0.1350444 0.61000013 1.0786889e-38
0.42513418 0.13510127 0.61000001 1.0786889e-38
0.43513 0.1349279 0.61000001 1.0786889e-38
0.44486222 0.13495037 0.60976923 1.0786889e-38
0.45484391 0.13500042 0.61000001 1.0786889e-38
0.46546975 0.1350752 0.60999995 1.0786889e-38
0.47471878 0.13500291 0.6099999 1.0786889e-38
0.48462394 0.13510616 0.61000001 1.0786889e-38
0.49546844 0.13506941 0.61000001 1.0786889e-38
0.50523466 0.1348872 0.60999984 1.0786889e-38
0.5148263 0.13524665 0.60999984 1.0786889e-38
0.52510196 0.13475367 0.60999995 1.0786889e-38
0.53567237 0.13506384 0.60999978 1.0786889e-38
0.54544353 0.13496105 0.60999984 1.0786889e-38
0.55537045 0.13502087 0.60999984 1.0786889e-38
0.56545615 0.13508494 0.60999978 1.0786889e-38
0.57577652 0.13480128 0.60999978 1.0786889e-38
0.58506948 0.13512048 0.60999972 1.0786889e-38
0.59465349 0.13491276 0.60999978 1.0786889e-38
0.60530436 0.1351576 0.60999978 1.0786889e-38
0.61526597 0.13489136 0.60999978 1.0786889e-38
0.62506735 0.13510062 0.60999978 1.0786889e-38
0.6353333 0.13482988 0.60999978 1.0786889e-38
0.64428562 0.13494532 0.60999972 1.0786889e-38
0.654513 0.13510767 0.60999972 1.0786889e-38
0.66525406 0.13488333 0.60999972 1.0786889e-38
0.67461294 0.1350005 0.60999972 1.0786889e-38
0.68466938 0.13505825 0.60999972 1.0786889e-38
0.69402468 0.13497578 0.60999972 1.0786889e-38
0.704189 0.13528828 0.60999972 1.0786889e-38
0.71410596 0.13493863 0.60999972 1.0786889e-38
0.72449994 0.13502467 0.60999978 1.0786889e-38
0.73504716 0.13511075 0.60999972 1.0786889e-38
0.74540597 0.13475332 0.60999978 1.0786889e-38
0.7547434 0.13548055 0.60999972 1.0786889e-38
0.76401383 0.1345285 0.60999972 1.0786889e-38
0.77517289 0.13510458 0.60999972 1.0786889e-38
0.78489941 0.13518794 0.60999972 1.0786889e-38
0.79476106 0.13461098 0.60999972 1.0786889e-38
0.804748 0.13536221 0.60999972 1.0786889e-38
0.81495255 0.13485223 0.60999978 1.0786889e-38
0.82513404 0.13486205 0.60999972 1.0786889e-38
0.83404046 0.13552015 0.60999972 1.0786889e-38
0.84480566 0.134472 0.60999972 1.0786889e-38
0.85523164 0.13501234 0.60999972 1.0786889e-38
0.86427176 0.13536967 0.60999972 1.0786889e-38
0.3299998 0.14497422 0.60404825 0
0.33506352 0.14499906 0.61000019 1.0694693e-38
0.34542045 0.14503689 0.61000013 1.0694693e-38
0.35523513 0.14508365 0.61000013 1.0694693e-38
0.36514661 0.14493018 0.61000013 1.0694693e-38
0.37533399 0.14487275 0.61000013 1.0694693e-38
0.38498557 0.14491846 0.61000007 1.0694693e-38
0.39471504 0.1451088 0.61000013 1.0786889e-38
0.40476412 0.14507081 0.61000007 1.0786889e-38
0.41510549 0.14492199 0.61000013 1.0786889e-38
0.42535758 0.14497213 0.61000001 1.0786889e-38
0.43484163 0.14503631 0.60999995 1.0786889e-38
0.44493446 0.1449534 0.61000001 1.0786889e-38
0.45524392 0.14489157 0.60975546 1.0786889e-38
0.46508929 0.14506844 0.61000001 1.0786889e-38
0.4748314 0.14502312 0.6099999 1.0786889e-38
0.48467636 0.14511266 0.60999995 1.0786889e-38
0.49522322 0.14491384 0.61000001 1.0786889e-38
0.50540745 0.14500226 0.60999984 1.0786889e-38
